# This PCD file was generated using the MATLAB® pcwrite function
# from Computer Vision Toolbox®.
# .PCD v.7 - Point Cloud Data file format
VERSION .7
FIELDS x y z intensity
SIZE 4 4 4 1
TYPE F F F U
COUNT 1 1 1 1
WIDTH 1386
HEIGHT 1
VIEWPOINT 0 0 0 1 0 0 0
POINTS 1386
DATA ascii
860.118042 -256.860321 4.883665 0
866.604675 -269.040222 3.869930 5
868.451904 -272.398224 4.147786 6
860.118042 -256.860321 4.883665 0
868.473816 -272.338257 3.895611 4
868.476318 -272.429504 4.452313 4
860.118042 -256.860321 4.883665 0
866.679199 -269.051819 3.908919 6
866.802734 -269.219910 4.340514 1
860.118042 -256.860321 4.883665 0
866.857849 -269.226746 4.136224 1
868.542358 -272.429932 4.507010 3
860.118042 -256.860321 4.883665 0
866.734497 -269.015442 3.951971 4
868.597229 -272.391754 4.255666 7
868.601379 -272.573639 4.833287 1
868.671936 -272.391418 3.995446 7
868.662170 -272.511230 4.558143 3
868.505859 -272.547943 5.148240 2
866.454895 -268.362854 4.038000 0
868.661377 -272.350037 4.309401 4
868.629639 -272.488068 4.889843 3
866.977966 -269.177460 4.220312 1
860.118042 -256.860321 4.883665 0
868.563293 -272.520905 5.203992 2
866.471863 -268.249420 4.081737 0
868.774536 -272.382843 4.358955 2
868.740295 -272.536865 4.943173 1
866.505737 -268.191528 4.307650 0
860.118042 -256.860321 4.883665 0
868.632446 -272.497498 5.259064 5
866.454468 -268.067230 4.129773 1
866.498901 -268.167694 4.538892 0
868.795532 -272.470612 4.995912 1
868.973206 -272.375763 4.144617 3
868.967957 -272.559021 4.715678 1
868.771423 -272.583893 5.315110 0
866.490967 -267.978729 4.168947 7
866.596375 -268.200409 4.573230 1
868.916748 -272.508911 5.049940 2
866.641418 -268.140869 4.380957 0
860.118042 -256.860321 4.883665 0
868.909241 -272.654114 5.370577 1
866.586548 -267.987244 4.200919 9
867.291748 -269.256744 4.582053 0
869.074280 -272.599152 5.101944 1
866.660400 -268.022430 4.419694 1
867.292908 -269.275726 4.830958 1
868.936951 -272.512299 5.420408 0
866.674072 -267.975372 4.233757 1
869.290405 -272.497223 4.553314 3
869.166077 -272.560791 5.151185 2
866.747620 -268.015503 4.452437 1
869.234985 -272.428467 4.866172 1
869.039734 -272.493530 5.470649 2
869.433533 -272.420837 4.016865 10
860.118042 -256.860321 4.883665 0
869.262085 -272.518616 5.202295 1
866.833435 -267.998505 4.485479 1
869.368286 -272.441284 4.915146 3
869.141235 -272.462646 5.520226 1
869.584106 -272.439362 4.056809 11
867.594421 -269.255402 4.693775 1
869.383423 -272.508789 5.250385 1
866.873108 -267.903076 4.519640 6
869.556396 -272.537964 4.962435 3
869.313538 -272.540649 5.574752 0
867.946350 -269.546997 4.244554 6
867.912048 -269.594818 4.725989 1
869.517883 -272.516602 5.298406 2
867.943909 -269.465820 4.502895 1
869.692200 -272.535797 5.007607 1
869.446411 -272.542358 5.622993 2
867.957275 -269.370117 4.286011 4
867.966919 -269.498199 4.763399 7
869.688171 -272.571381 5.348547 2
868.002686 -269.371460 4.540058 6
869.870117 -272.594910 5.055259 2
869.614868 -272.595062 5.674278 1
867.968079 -269.197144 4.325388 7
867.967163 -269.310638 4.798635 9
869.846741 -272.597443 5.394929 2
868.017822 -269.206665 4.576023 8
870.045654 -272.641876 5.100301 10
869.728088 -272.545746 5.721661 1
868.006775 -269.063660 4.362452 8
867.964600 -269.117920 4.834130 10
870.013062 -272.628906 5.441789 4
868.025513 -269.031525 4.612602 9
870.165649 -272.591766 5.142348 19
869.899109 -272.584503 5.769123 1
868.062988 -268.959045 4.395968 11
867.991516 -268.974701 4.867009 8
870.125732 -272.567474 5.486468 14
868.101990 -268.960968 4.645321 7
870.418274 -272.743835 5.190100 1
870.054688 -272.590393 5.816106 13
868.188721 -268.958038 4.423604 12
868.153687 -269.034698 4.897419 7
870.259949 -272.535095 5.528394 2
868.220276 -268.950592 4.674546 11
870.465027 -272.571716 5.228617 0
870.191833 -272.561218 5.861811 12
868.323181 -268.965454 4.452602 8
868.324341 -269.101135 4.929254 8
870.430664 -272.554718 5.572289 2
868.361267 -268.970367 4.702936 15
870.651733 -272.609100 5.269293 1
870.391785 -272.621490 5.909311 7
868.468079 -268.984436 4.478810 12
868.485901 -269.150085 4.959943 6
870.632751 -272.614075 5.619700 1
868.475281 -268.946777 4.732679 16
870.831421 -272.628174 5.311741 2
870.557373 -272.625854 5.953814 7
868.595276 -268.975464 4.505545 4
870.993774 -272.584656 5.018955 2
870.795593 -272.608215 5.660566 2
868.617371 -268.960602 4.760143 13
870.945679 -272.549652 5.349712 3
870.756226 -272.670044 6.001728 3
871.355591 -272.666565 4.425688 11
871.147644 -272.557220 5.057757 1
870.957642 -272.597260 5.700583 2
868.999268 -269.308105 4.783876 1
871.123779 -272.557556 5.388487 3
870.914734 -272.650909 6.043112 3
871.527466 -272.653961 4.458230 11
871.386719 -272.646362 5.095592 2
871.166138 -272.645874 5.745902 2
869.148621 -269.317291 4.812075 0
871.329346 -272.598907 5.429109 2
871.070557 -272.623627 6.082813 3
869.382324 -269.482697 4.569044 1
871.633545 -272.739838 5.131934 13
871.390625 -272.712280 5.788000 2
871.775574 -272.688995 4.826330 0
871.609253 -272.740265 5.471698 5
871.280273 -272.667328 6.129181 2
869.446594 -269.369385 4.597332 1
871.816101 -272.736847 5.168719 2
871.571960 -272.714355 5.827740 5
871.980347 -272.717102 4.859278 2
871.839783 -272.801941 5.510586 1
871.450623 -272.651764 6.167876 7
869.605530 -269.381958 4.619956 1
871.988281 -272.719299 5.203361 2
871.758545 -272.715698 5.868229 4
872.130066 -272.665375 4.892828 2
871.921631 -272.661530 5.542589 3
871.682373 -272.717651 6.214621 10
869.758118 -269.384247 4.644140 2
872.196350 -272.743652 5.237225 2
871.944092 -272.712921 5.905858 9
872.373962 -272.733551 4.923876 1
872.133606 -272.692169 5.580118 3
871.889893 -272.741150 6.257546 2
869.924988 -269.399261 4.667302 1
872.349121 -272.691071 5.270638 5
872.156250 -272.741577 5.944427 9
872.576416 -272.745514 4.954299 3
872.352356 -272.726074 5.615227 0
872.053223 -272.702148 6.293121 3
872.829895 -272.857330 4.635338 2
872.597107 -272.758484 5.303495 1
872.354492 -272.747528 5.984213 5
872.768066 -272.735901 4.985760 2
872.591248 -272.780151 5.653859 2
872.291260 -272.759277 6.336737 0
870.271118 -269.437866 4.709801 1
872.783997 -272.743652 5.335319 3
872.590759 -272.796417 6.023096 2
873.058838 -272.847565 5.015438 20
872.798157 -272.789368 5.687121 1
872.523987 -272.803040 6.379920 2
870.425110 -269.429169 4.732154 6
873.044678 -272.818756 5.368358 20
872.802429 -272.810974 6.058997 1
873.224976 -272.802490 5.043990 24
873.046753 -272.847900 5.723150 18
872.739746 -272.818909 6.418590 1
870.578247 -269.416351 4.751636 4
873.225281 -272.786499 5.397885 20
873.025818 -272.834198 6.098112 11
873.481323 -272.860291 5.073631 3
873.208374 -272.794678 5.753122 22
872.959412 -272.836945 6.458009 2
870.766357 -269.444397 4.771417 5
873.483521 -272.848450 5.430340 1
873.212341 -272.807312 6.129223 20
873.778503 -272.961212 5.101218 1
873.526855 -272.922943 5.793024 2
873.121399 -272.778748 6.490073 20
870.964294 -269.476959 4.791595 2
873.744019 -272.905487 5.461788 2
873.474854 -272.871582 6.168417 2
873.886353 -272.837036 5.126516 6
873.726685 -272.908752 5.823167 4
873.415588 -272.877838 6.534882 2
871.329041 -269.698303 4.808016 16
873.918457 -272.855865 5.489018 2
873.690369 -272.871338 6.203455 1
874.140259 -272.879608 5.154621 1
873.901001 -272.860138 5.851383 6
873.619568 -272.866943 6.569746 2
871.369690 -269.547516 4.827340 16
874.206726 -272.937347 5.520499 2
873.889465 -272.850067 6.233794 2
874.394409 -272.917175 5.179818 2
874.153625 -272.896759 5.884693 11
873.863892 -272.894226 6.609699 1
871.368591 -269.349518 4.846853 17
874.407837 -272.914093 5.546774 4
874.121155 -272.864624 6.267670 2
874.654358 -272.958008 5.204647 27
874.398499 -272.922943 5.915627 12
874.036621 -272.836548 6.637197 3
871.412842 -269.203918 4.862871 13
874.646179 -272.926880 5.574340 21
874.316833 -272.832153 6.298433 7
874.869934 -272.943542 5.229984 0
874.603638 -272.900940 5.943671 21
874.299072 -272.881775 6.675819 3
871.618652 -269.235779 4.878655 11
874.903687 -272.959625 5.602479 1
874.637573 -272.936523 6.337755 21
875.068298 -272.909088 5.251640 2
874.823364 -272.888702 5.971749 11
874.603149 -272.963318 6.720513 6
871.868469 -269.309998 4.895242 13
875.131836 -272.955780 5.627934 2
874.888916 -272.958038 6.371469 3
875.304016 -272.912567 5.274540 9
875.154663 -272.995483 6.007471 3
874.837402 -272.964996 6.753546 2
872.046936 -269.304443 4.910261 1
875.403198 -272.991211 5.655303 2
875.100220 -272.932373 6.400278 4
875.580872 -272.953247 5.298508 2
875.394531 -272.999329 6.035159 3
875.070801 -272.962555 6.786712 2
875.829346 -273.000885 4.937171 3
875.660217 -273.010925 5.680757 2
875.400513 -272.998535 6.435493 3
875.854065 -272.986694 5.319819 3
875.616577 -272.978149 6.061314 3
875.348633 -273.001587 6.825687 2
876.103577 -273.030304 4.956513 24
875.940369 -273.049835 5.706596 3
875.676392 -273.033356 6.469657 2
876.120728 -273.009766 5.341696 28
875.988892 -273.110107 6.097376 2
875.567993 -272.975311 6.853099 4
873.003235 -269.694763 4.954684 0
876.166382 -273.025787 5.729609 25
875.908203 -273.017731 6.498193 3
876.392578 -273.032135 5.364326 2
876.113342 -272.985626 6.114820 26
875.906372 -273.070618 6.897727 3
876.563477 -272.991455 4.989909 2
876.449585 -273.058807 5.753419 0
876.137268 -272.995941 6.524004 22
876.581116 -272.968018 5.381143 3
876.398926 -273.016815 6.142556 2
876.104980 -273.015167 6.922847 26
876.863953 -273.035217 5.007588 3
876.734131 -273.089844 5.778209 2
876.480652 -273.085358 6.561498 2
876.882629 -273.013916 5.401725 3
876.698059 -273.060730 6.171319 3
876.404541 -273.058258 6.958617 1
877.162720 -273.071838 5.022511 3
877.044983 -273.136322 5.803308 2
876.662048 -273.009949 6.582937 2
877.189453 -273.057068 5.423099 6
876.981995 -273.084839 6.198297 3
876.606995 -273.003021 6.982531 11
877.559265 -273.197632 5.038437 5
877.348999 -273.175385 5.826921 1
876.977905 -273.061829 6.615672 4
877.627686 -273.219177 5.445092 6
877.276794 -273.111450 6.224665 3
876.981018 -273.109192 7.028096 3
877.807861 -273.176605 5.054218 3
877.620605 -273.179718 5.847963 26
877.291138 -273.107513 6.647679 3
877.851257 -273.175842 5.461650 3
877.628357 -273.189148 6.254991 25
877.278259 -273.136108 7.061341 3
878.062012 -273.158813 5.066634 3
877.807983 -273.098450 5.863219 16
877.620117 -273.160126 6.681729 26
878.103821 -273.155090 5.479223 3
877.881165 -273.171448 6.277492 3
877.631470 -273.212067 7.101640 10
878.351929 -273.170959 5.080553 3
878.191467 -273.197723 5.889427 9
877.904907 -273.167206 6.708044 3
878.369995 -273.142944 5.493901 2
878.055298 -273.073517 6.291797 6
877.886841 -273.187622 7.129165 2
878.720886 -273.246185 5.095022 4
874.705078 -269.844666 5.698438 5
878.253418 -273.229797 6.741868 3
878.766052 -273.243744 5.513419 3
874.714172 -269.850708 6.030358 21
878.221313 -273.234528 7.165065 3
879.058167 -273.289703 5.106814 30
878.816772 -273.246613 5.931411 9
878.484619 -273.177917 6.762234 5
879.071960 -273.257782 5.530484 31
874.953247 -269.861328 6.048919 7
878.517212 -273.243256 7.195782 2
879.391907 -273.325073 5.117971 4
879.099731 -273.240448 5.949106 31
878.871277 -273.264496 6.797575 3
879.453125 -273.331696 5.547359 3
879.089478 -273.227234 6.372583 33
878.882080 -273.303772 7.233824 3
879.690369 -273.324615 5.130734 4
879.466858 -273.301727 5.971991 10
879.119019 -273.223541 6.818850 30
879.771851 -273.348297 5.562708 4
879.452087 -273.282379 6.399845 3
879.060425 -273.200989 7.248020 23
879.982056 -273.314636 5.140049 5
879.823730 -273.344452 5.992813 5
879.494690 -273.284454 6.851322 3
880.087280 -273.354767 5.578454 3
879.720215 -273.254425 6.417783 3
879.365601 -273.204224 7.277386 7
880.378052 -273.387207 5.150187 3
880.187256 -273.392517 6.013172 4
879.750488 -273.243896 6.871178 9
880.361084 -273.323914 5.589154 7
880.083313 -273.297516 6.443285 4
879.785400 -273.295624 7.319937 9
880.661560 -273.361877 5.160266 4
880.523254 -273.411102 6.031599 5
880.135132 -273.305298 6.904180 3
880.747009 -273.382050 5.605139 1
880.500671 -273.381561 6.472101 6
880.119873 -273.314362 7.351453 11
881.001892 -273.378448 5.167498 3
880.757080 -273.339142 6.043265 16
880.589844 -273.413452 6.941561 7
881.030701 -273.353729 5.615277 4
880.842773 -273.399536 6.494235 4
880.499329 -273.363556 7.387002 15
881.339783 -273.388916 5.175993 8
881.218994 -273.449371 6.067209 3
880.890625 -273.395203 6.963615 3
881.448242 -273.421448 5.630426 3
881.141785 -273.375153 6.512515 4
880.854004 -273.383331 7.419468 17
881.758972 -273.457611 5.185030 3
881.627136 -273.509796 6.088015 4
881.233337 -273.407288 6.989859 4
881.886169 -273.502319 5.646243 5
881.569580 -273.449677 6.540006 5
881.206604 -273.399994 7.450104 16
865.357605 -260.816589 4.957299 10
882.005615 -273.537506 6.105062 18
881.667603 -273.480286 7.024066 3
865.355042 -260.802582 5.066916 5
882.005493 -273.523621 6.567100 26
881.580872 -273.428802 7.482366 14
865.359558 -260.757599 4.957520 12
865.342834 -260.779053 5.174232 6
882.033081 -273.497498 7.050027 32
865.370667 -260.752319 5.067242 10
865.338806 -260.771973 5.282768 6
881.974121 -273.462677 7.517548 10
882.865173 -273.511658 5.205267 7
865.375732 -260.742676 5.174365 5
865.346985 -260.767700 5.397624 29
883.012817 -273.562622 5.681318 5
865.387329 -260.747467 5.284838 3
865.341003 -260.764557 5.509174 9
883.304932 -273.567322 5.211539 4
883.147217 -273.598938 6.155372 3
865.410156 -260.751953 5.401751 0
883.407349 -273.586090 5.691631 11
883.133179 -273.571564 6.629440 5
882.747009 -273.510498 7.581044 3
883.770874 -273.639374 5.218102 2
883.523499 -273.608490 6.169934 27
883.252441 -273.603729 7.136413 4
883.870911 -273.651154 5.705483 3
883.616943 -273.650940 6.656962 35
860.118042 -256.860321 4.883665 0
884.143982 -273.639587 5.222022 4
883.912659 -273.619720 6.184800 8
883.613892 -273.596649 7.159116 24
884.261047 -273.660278 5.714337 6
883.934570 -273.610443 6.671646 4
860.118042 -256.860321 4.883665 0
884.553467 -273.655579 5.225720 4
884.396545 -273.687927 6.203552 5
884.121765 -273.683472 7.195253 3
884.761963 -273.740265 5.726947 5
884.364197 -273.643890 6.693955 8
860.118042 -256.860321 4.883665 0
885.073669 -273.745422 5.231113 36
884.845459 -273.730255 6.220668 7
884.536316 -273.701172 7.220691 4
885.074951 -273.682281 5.732240 40
884.923828 -273.754272 6.724909 6
860.118042 -256.860321 4.883665 0
885.494080 -273.759979 5.234285 2
885.185791 -273.691803 6.231135 34
884.979370 -273.733398 7.249352 27
885.647461 -273.796997 5.746412 4
885.169983 -273.650818 6.731642 22
860.118042 -256.860321 4.883665 0
885.917053 -273.766663 5.236506 8
885.675415 -273.744324 6.248944 4
885.278564 -273.658905 7.263735 11
886.114258 -273.834106 5.755717 3
885.689941 -273.726074 6.758404 4
860.118042 -256.860321 4.883665 0
886.515869 -273.885559 5.241222 16
886.169983 -273.796997 6.265492 5
885.899719 -273.795715 7.306972 7
886.583679 -273.861328 5.765112 41
886.192017 -273.777252 6.782615 5
860.118042 -256.860321 4.883665 0
886.950806 -273.891876 5.242836 2
886.670654 -273.845947 6.281816 4
886.341553 -273.807831 7.332137 9
887.067627 -273.896332 5.773591 5
886.714600 -273.838593 6.807549 4
860.118042 -256.860321 4.883665 0
887.375488 -273.880524 5.243366 9
887.177734 -273.887299 6.297976 6
886.827820 -273.838318 7.361628 9
887.600586 -273.953827 5.783054 5
887.252136 -273.901672 6.832683 6
860.118042 -256.860321 4.883665 0
888.001709 -273.992767 5.245829 37
887.752258 -273.968140 6.317812 6
887.332764 -273.877777 7.391965 10
888.037659 -273.942230 5.788968 38
887.822571 -273.972473 6.859963 6
860.118042 -256.860321 4.883665 0
888.493896 -274.011932 5.244222 4
888.159241 -273.938110 6.326678 34
887.864441 -273.925659 7.423745 17
888.609375 -274.008789 5.798250 4
888.160767 -273.897827 6.870350 25
860.118042 -256.860321 4.883665 0
888.945740 -274.000061 5.244373 8
888.742310 -274.005371 6.344376 5
888.322266 -273.916534 7.447570 15
889.172607 -274.060822 5.806288 4
888.715820 -273.949768 6.893832 11
887.847534 -273.614777 7.952388 20
889.566223 -274.083923 5.245761 19
889.231018 -274.010590 6.357282 12
888.907410 -273.982239 7.482224 15
889.638733 -274.047729 5.811745 5
889.459167 -274.099731 6.930511 6
860.118042 -256.860321 4.883665 0
890.080872 -274.095184 5.243181 4
889.868469 -274.096710 6.376778 5
889.460571 -274.020172 7.514130 13
890.342224 -274.167114 5.823108 3
889.968140 -274.107147 6.950342 5
860.118042 -256.860321 4.883665 0
890.796021 -274.212952 5.244970 6
890.466370 -274.146667 6.393103 5
890.090576 -274.090210 7.550392 9
890.967163 -274.229279 5.830764 38
890.538025 -274.142761 6.973431 6
860.118042 -256.860321 4.883665 0
891.388367 -274.253235 5.242764 3
891.034180 -274.175049 6.407449 43
890.677856 -274.130981 7.583495 6
891.563171 -274.266998 5.838446 2
891.064514 -274.141083 6.992566 48
860.118042 -256.860321 4.883665 0
891.864014 -274.220459 5.238158 8
891.671753 -274.235046 6.424518 5
891.267334 -274.165771 7.614612 3
892.166382 -274.300964 5.844841 4
891.831848 -274.269196 7.027506 6
860.118042 -256.860321 4.883665 0
892.641907 -274.344421 5.238601 6
892.339294 -274.297638 6.442002 9
892.011292 -274.270844 7.659275 4
892.765076 -274.324738 5.849692 11
892.521423 -274.344147 7.055601 10
860.118042 -256.860321 4.883665 0
893.351746 -274.421783 5.236556 5
893.007080 -274.354218 6.459605 5
860.118042 -256.860321 4.883665 0
893.482666 -274.400726 5.859303 6
893.111816 -274.350739 7.077289 5
860.118042 -256.860321 4.883665 0
894.018005 -274.465820 5.231483 33
893.680176 -274.404968 6.476063 6
860.118042 -256.860321 4.883665 0
894.039062 -274.386200 5.862169 47
893.786499 -274.398834 7.103743 13
860.118042 -256.860321 4.883665 0
894.739624 -274.527740 5.229181 4
894.368591 -274.449585 6.491879 4
860.118042 -256.860321 4.883665 0
894.922729 -274.528809 5.872795 7
894.448914 -274.431213 7.128173 7
860.118042 -256.860321 4.883665 0
895.514526 -274.609406 5.225714 32
895.067017 -274.493683 6.508193 11
860.118042 -256.860321 4.883665 0
895.499695 -274.504364 5.876835 23
895.336487 -274.563568 7.165869 5
860.118042 -256.860321 4.883665 0
896.107666 -274.588562 5.218826 5
895.912903 -274.602539 6.530524 5
860.118042 -256.860321 4.883665 0
896.447083 -274.656250 5.887997 6
896.073608 -274.612854 7.194107 3
860.118042 -256.860321 4.883665 0
896.977539 -274.693146 5.215987 39
896.691040 -274.659760 6.548467 9
860.118042 -256.860321 4.883665 0
897.074829 -274.639343 5.890268 47
896.873779 -274.682465 7.225669 12
860.118042 -256.860321 4.883665 0
897.702881 -274.719147 5.210294 7
897.470459 -274.713043 6.566438 3
860.118042 -256.860321 4.883665 0
897.978394 -274.743896 5.900727 7
897.689514 -274.742920 7.256638 3
899.786743 -275.913147 8.889742 21
898.694275 -274.857941 5.205472 5
898.377869 -274.815033 6.588774 10
898.411011 -274.967194 8.019908 5
898.715698 -274.760712 5.904641 26
898.519226 -274.804016 7.287879 40
898.351685 -274.882843 8.718919 20
899.461060 -274.878052 5.199793 8
899.088745 -274.808624 6.602577 7
898.346680 -274.600769 7.989347 37
899.832336 -274.939301 5.917548 16
899.340698 -274.849701 7.317886 6
898.415039 -274.576233 8.698502 44
900.520203 -275.023315 5.194356 5
899.977600 -274.878540 6.622578 40
898.108887 -274.159119 7.947316 55
900.709412 -274.992401 5.925510 7
900.088135 -274.845367 7.341787 26
898.259521 -274.170776 8.654453 54
901.452576 -275.094971 5.186049 22
900.860229 -274.933167 6.642237 10
898.180908 -273.865021 7.930183 11
901.449219 -274.977203 5.927011 20
901.212646 -275.003082 7.389813 7
898.295410 -273.854736 8.633653 57
902.085449 -275.023041 5.177271 9
901.888123 -275.033356 6.666455 4
899.367920 -274.059326 7.999228 3
902.658264 -275.151550 5.939284 8
902.198181 -275.083252 7.426665 7
898.244080 -273.505951 8.602028 58
903.281067 -275.185303 5.171474 5
902.950012 -275.139313 6.691810 35
899.706421 -273.870453 8.003144 16
903.706116 -275.239410 5.948734 7
903.061401 -275.093994 7.456313 14
898.421570 -273.256470 8.592513 63
904.444275 -275.314758 5.163067 28
903.991882 -275.221191 6.716722 9
898.449829 -273.009521 7.881480 49
904.532654 -275.236755 5.952521 14
904.212891 -275.231995 7.501398 8
898.539307 -272.993835 8.578341 51
902.077759 -274.013275 5.136178 9
904.940979 -275.291229 6.737642 7
898.201477 -272.622467 7.841779 8
901.854858 -273.829163 5.872847 40
901.519836 -273.808655 7.323707 13
898.298523 -272.610046 8.534172 22
902.174316 -273.753601 5.123026 50
901.767395 -273.683655 6.589692 29
898.264648 -272.368011 7.827214 5
906.859253 -275.530640 5.975976 8
901.644104 -273.556427 7.311971 62
898.171143 -272.275391 8.500116 45
902.359619 -273.526520 5.112608 40
903.840088 -274.205719 6.657100 11
901.464783 -273.366577 8.052542 5
902.589661 -273.521057 5.862133 48
902.489319 -273.589264 7.342049 53
898.379456 -272.078674 8.497856 54
902.704224 -273.362701 5.102630 35
902.660461 -273.432983 6.592620 8
902.361877 -273.421417 8.099502 31
902.762268 -273.286316 5.851537 16
907.190857 -275.106903 7.595014 95
898.579956 -271.877563 8.495093 48
904.152161 -273.614014 5.096935 37
903.266724 -273.364990 6.599137 26
898.828979 -271.756653 7.811993 8
902.809875 -273.003052 5.837413 53
907.157959 -274.758209 7.571455 82
898.586487 -271.604095 8.473841 56
905.318481 -273.741669 5.090412 4
905.031250 -273.723816 6.652939 21
898.783325 -271.463409 7.789852 8
904.080200 -273.177521 5.850553 22
904.390747 -273.394196 7.394229 31
898.682251 -271.362396 8.462331 50
912.081665 -275.906006 5.105086 11
902.843323 -272.601257 6.550798 43
903.322510 -272.869934 8.109711 26
903.965393 -272.829803 5.834175 37
904.823730 -273.242218 7.399489 16
899.352539 -271.335388 8.503711 24
913.167236 -275.940338 5.094774 20
903.317993 -272.474396 6.553357 11
900.437500 -271.515778 7.875199 8
913.800659 -276.042358 6.030550 10
902.742371 -272.180542 7.264482 43
899.070435 -270.954529 8.457586 31
914.837891 -276.164917 5.086281 12
904.140381 -272.465668 6.567509 23
900.512878 -271.257965 7.862087 8
915.125977 -276.136475 6.041669 10
914.697510 -276.096405 7.910399 7
899.745178 -270.917786 8.498957 50
915.857910 -276.145844 5.075513 29
915.714478 -276.188354 6.989887 23
899.739380 -270.708099 7.785829 7
916.688843 -276.296906 6.056162 7
904.022095 -272.029419 7.299456 30
899.886597 -270.688507 8.490837 55
917.722717 -276.399384 5.066443 10
917.258362 -276.332275 7.028757 28
902.568970 -271.401550 7.973878 8
918.158752 -276.406494 6.068542 9
904.693604 -271.957062 7.318755 5
899.705139 -270.351044 8.454610 23
918.816223 -276.373993 5.054056 19
918.598389 -276.392456 7.058912 25
898.950195 -269.895752 7.694220 43
919.774719 -276.549561 6.082704 11
919.179321 -276.458557 8.087321 9
899.405640 -269.976227 8.408237 55
920.715515 -276.597260 5.043896 10
920.429565 -276.594360 7.106804 9
898.862671 -269.599335 7.671290 21
921.420105 -276.679199 6.096662 20
920.860901 -276.605103 8.155132 11
899.740173 -269.816284 8.419719 55
922.488220 -276.761871 5.031516 12
922.060181 -276.709625 7.144876 8
899.571167 -269.562164 7.704933 17
922.969849 -276.761810 6.110564 22
922.534729 -276.726166 8.221911 13
899.956970 -269.613129 8.421175 57
909.379333 -272.251007 4.987861 3
923.966553 -276.890320 7.193397 11
905.552002 -271.181458 8.113428 6
924.490845 -276.813873 6.121615 23
924.441162 -276.898438 8.299662 12
899.849426 -269.306580 8.392485 54
926.205200 -277.072906 5.008395 12
925.757141 -277.017883 7.236018 21
900.255798 -269.240021 7.720140 15
925.964111 -276.833374 6.130832 55
925.892151 -276.909698 8.353273 122
899.928284 -269.063019 8.381880 66
912.568481 -272.556183 4.969879 6
925.926147 -276.631683 7.220987 118
925.904541 -276.708801 9.505928 111
925.952026 -276.394745 6.112229 128
925.913574 -276.480713 8.330733 127
900.744446 -269.038788 8.435758 87
925.976685 -276.137177 4.975954 56
925.946594 -276.204681 7.202459 69
925.885254 -276.265656 9.480785 14
930.985474 -277.427094 6.185789 11
930.140137 -277.275879 8.527063 8
900.707520 -268.754059 8.413980 58
916.069519 -272.876251 4.948602 5
931.750488 -277.437897 7.384284 16
902.965393 -269.217285 7.861267 4
932.838013 -277.489166 6.200662 39
932.338257 -277.443298 8.618023 14
900.978210 -268.561768 8.421446 62
934.587219 -277.692261 4.951697 17
934.114197 -277.632202 7.445124 10
876.509033 -261.478607 6.016731 7
935.453674 -277.743866 6.230217 12
934.625122 -277.604309 8.712592 10
901.060425 -268.312408 8.411801 57
919.622314 -273.121765 4.925342 12
936.618896 -277.835846 7.509552 15
876.476318 -261.361633 6.008007 15
937.995605 -277.943634 6.255764 20
937.111572 -277.791718 8.814374 14
901.144592 -268.064117 8.403032 60
920.111511 -272.871216 4.913904 7
939.217957 -278.039337 7.575157 14
876.496216 -261.259369 6.003266 0
940.784668 -278.178192 6.284897 23
876.662231 -261.255341 5.723427 3
901.735962 -267.964935 8.438056 63
923.174377 -273.302216 4.901578 16
942.089539 -278.300079 7.653560 9
876.455444 -261.145966 5.995876 1
877.150879 -261.257507 5.175531 0
876.575684 -261.130524 5.713630 5
901.819824 -267.724701 8.430126 71
945.464539 -278.593567 4.893056 22
944.982117 -278.537842 7.729400 20
876.666809 -261.099854 6.005109 6
877.053650 -261.129211 5.169361 10
877.253601 -261.199890 5.743449 6
902.610596 -267.664062 8.482113 50
876.942627 -261.042694 4.881526 6
944.671631 -277.940430 7.697593 122
905.076721 -268.099609 7.915344 14
876.876282 -260.981812 5.163723 68
877.069885 -261.049957 5.729177 7
902.344421 -267.335205 8.446025 71
876.791077 -260.903687 4.878382 0
877.501038 -261.086731 5.457877 24
877.092957 -260.997894 6.023622 32
876.726379 -260.844788 5.157443 1
931.955933 -274.175507 8.449386 29
876.939209 -260.928314 6.296464 2
940.957214 -275.979340 4.848000 17
946.176636 -277.268524 7.706646 29
876.684204 -260.797058 5.990970 0
876.950439 -260.797211 5.157048 63
876.644653 -260.742188 5.699765 0
877.120300 -260.866669 6.306595 0
876.767029 -260.698059 4.873202 2
876.951050 -260.749542 5.431507 17
876.801392 -260.722961 5.993637 6
941.038391 -275.297882 6.186172 38
931.609009 -273.222290 8.396364 33
860.118042 -256.860321 4.883665 0
937.314575 -274.195923 4.823169 16
944.901733 -275.938812 7.627470 15
877.037964 -260.675232 6.005620 0
941.062561 -274.821106 6.172574 51
931.515259 -272.768402 8.375275 26
876.849365 -260.598724 6.273395 2
941.050781 -274.551147 4.808087 41
945.333252 -275.527191 7.624596 6
929.204834 -272.018311 9.447905 46
941.129517 -274.351562 6.158627 42
932.003296 -272.442017 8.382622 26
882.212097 -261.662201 6.712985 1
945.976196 -275.121490 4.789356 23
936.539978 -273.142120 7.325256 9
929.465637 -271.655060 9.445683 34
930.036560 -271.597992 8.270923 5
882.239441 -261.533356 6.709462 1
887.191040 -262.457184 4.849620 14
887.187378 -262.464661 5.743033 5
882.073853 -261.412048 6.322041 4
882.391235 -261.421112 5.958037 11
882.381348 -261.428558 6.715555 7
882.294556 -261.315186 4.852627 0
933.895325 -271.700531 7.213598 9
882.141968 -261.293335 6.322209 3
860.118042 -256.860321 4.883665 0
882.335876 -261.276917 5.950081 0
881.865356 -261.191864 6.667168 35
956.788330 -275.711182 4.739031 22
882.622009 -261.253357 5.589408 3
882.281799 -261.188446 6.326411 6
882.876526 -261.236206 5.227206 0
882.402954 -261.158173 5.949302 28
882.365234 -261.157104 6.702431 2
933.517334 -270.742432 4.763535 40
882.508057 -261.098206 5.582694 4
882.489319 -261.097107 6.334852 15
882.870117 -261.100616 5.223562 6
882.669189 -261.075775 5.957538 17
882.962219 -261.135437 6.746447 1
882.939331 -261.043579 4.843703 56
882.915405 -261.042114 5.592127 24
882.636414 -260.989532 6.339741 1
882.774231 -260.949402 5.218842 15
882.196533 -260.856781 5.931572 3
860.118042 -256.860321 4.883665 0
882.783875 -260.883301 4.841236 7
882.578552 -260.848328 5.577670 12
882.645874 -260.857758 6.336197 11
882.651306 -260.796814 5.214535 1
881.812195 -260.659393 5.909613 24
860.118042 -256.860321 4.883665 0
888.617859 -261.752625 4.827355 2
882.790894 -260.754089 5.580919 3
882.015869 -260.617279 6.291731 1
882.798035 -260.690094 5.213414 23
881.985901 -260.561249 5.913929 27
860.118042 -256.860321 4.883665 0
877.815491 -259.796783 4.846682 0
882.622192 -260.593079 5.573136 6
883.116638 -260.669952 6.358350 9
882.603394 -260.525818 5.208033 14
881.831604 -260.408936 5.904214 23
882.973328 -260.593842 6.728963 20
877.847290 -259.699219 4.845234 36
877.876648 -259.702179 5.425573 5
883.060242 -260.525696 6.350448 10
877.877014 -259.653473 5.138196 159
877.872925 -259.657654 5.715211 15
877.884338 -259.657074 6.314576 10
877.871277 -259.600281 4.843218 166
877.834839 -259.592804 5.422152 165
877.847900 -259.589172 6.014489 48
877.875122 -259.550201 5.136599 172
877.881958 -259.555939 5.713020 15
877.884399 -259.551849 6.310919 16
877.972778 -259.514282 4.841949 0
882.083069 -260.121307 5.548226 26
882.074768 -260.111328 6.281014 1
905.418823 -263.461914 5.524817 4
895.736816 -262.058929 6.543032 7
895.480896 -262.013031 7.719985 4
883.557007 -260.203644 5.591055 2
882.966003 -260.109955 6.334542 1
905.491333 -263.213196 5.522664 6
895.277832 -261.787537 6.517539 2
860.118042 -256.860321 4.883665 0
860.118042 -256.860321 4.883665 0
914.875244 -264.358643 6.531620 30
913.886658 -264.196594 8.292556 26
905.720398 -262.983582 5.522082 5
905.516663 -262.960114 6.989318 5
860.118042 -256.860321 4.883665 0
905.649597 -262.847870 4.768562 4
905.755493 -262.846588 6.252487 8
913.621216 -263.849060 8.269869 8
905.752258 -262.726776 5.520191 41
913.209595 -263.689423 7.340046 44
860.118042 -256.860321 4.883665 0
860.118042 -256.860321 4.883665 0
905.927002 -262.606018 6.254096 1
914.378296 -263.633270 8.312037 29
913.623840 -263.435364 5.625862 29
913.196777 -263.381226 7.335586 41
860.118042 -256.860321 4.883665 0
918.084534 -263.823364 4.731620 46
906.154480 -262.373352 6.258671 18
914.275574 -263.309326 8.300515 29
913.793640 -263.149597 5.625568 22
913.536499 -263.115417 7.347172 34
860.118042 -256.860321 4.883665 0
914.032532 -263.007690 6.489869 10
913.897888 -262.952881 8.271759 36
937.735107 -265.513672 5.953558 21
913.830383 -262.844238 7.357216 65
860.118042 -256.860321 4.883665 0
937.582214 -265.290344 4.676382 13
917.414551 -263.066681 6.588707 63
914.294434 -262.686218 8.293474 7
937.766785 -265.079590 5.950640 26
913.986694 -262.551849 7.360765 46
860.118042 -256.860321 4.883665 0
965.749390 -267.759552 4.598237 17
917.350647 -262.735748 6.583366 45
926.870911 -263.657196 9.080675 13
925.166870 -263.376404 5.775964 10
915.959900 -262.441284 7.448440 57
860.118042 -256.860321 4.883665 0
917.034119 -262.378845 6.572521 33
926.249084 -263.213867 9.037327 14
925.223145 -263.013702 5.775196 255
915.773499 -262.108063 7.438408 24
860.118042 -256.860321 4.883665 0
963.227966 -266.340607 4.601947 46
917.165161 -262.068115 6.574769 34
927.486755 -262.946228 9.112120 8
963.583557 -266.060883 6.300662 13
915.839355 -261.795990 7.439021 61
860.118042 -256.860321 4.883665 0
958.342041 -265.276184 7.793648 25
930.367371 -262.808838 9.290120 10
969.980347 -266.008545 6.385754 43
915.562012 -261.455994 7.425787 87
860.118042 -256.860321 4.883665 0
860.118042 -256.860321 4.883665 0
958.942017 -264.767426 7.810362 34
860.118042 -256.860321 4.883665 0
969.851379 -265.380951 6.384382 9
915.326172 -261.126221 7.413208 46
860.118042 -256.860321 4.883665 0
860.118042 -256.860321 4.883665 0
960.609558 -264.334015 7.858830 24
931.498901 -262.088928 9.358442 11
860.118042 -256.860321 4.883665 0
915.198669 -260.803101 7.405943 34
860.118042 -256.860321 4.883665 0
860.118042 -256.860321 4.883665 0
860.118042 -256.860321 4.883665 0
860.118042 -256.860321 4.883665 0
860.118042 -256.860321 4.883665 0
917.319885 -260.631195 7.504435 31
860.118042 -256.860321 4.883665 0
860.118042 -256.860321 4.883665 0
860.118042 -256.860321 4.883665 0
860.118042 -256.860321 4.883665 0
860.118042 -256.860321 4.883665 0
915.969299 -260.229340 7.442408 11
860.118042 -256.860321 4.883665 0
860.118042 -256.860321 4.883665 0
918.533264 -260.221069 6.616153 7
930.216797 -260.802826 9.277657 3
860.118042 -256.860321 4.883665 0
915.779724 -259.903015 7.435394 7
860.118042 -256.860321 4.883665 0
860.118042 -256.860321 4.883665 0
860.118042 -256.860321 4.883665 0
860.118042 -256.860321 4.883665 0
860.118042 -256.860321 4.883665 0
915.893799 -259.596527 7.442422 8
860.118042 -256.860321 4.883665 0
915.811401 -259.498840 4.741610 151
860.118042 -256.860321 4.883665 0
860.118042 -256.860321 4.883665 0
860.118042 -256.860321 4.883665 0
860.118042 -256.860321 4.883665 0
860.118042 -256.860321 4.883665 0
860.118042 -256.860321 4.883665 0
860.118042 -256.860321 4.883665 0
860.118042 -256.860321 4.883665 0
860.118042 -256.860321 4.883665 0
860.118042 -256.860321 4.883665 0
860.118042 -256.860321 4.883665 0
860.118042 -256.860321 4.883665 0
860.118042 -256.860321 4.883665 0
860.118042 -256.860321 4.883665 0
860.118042 -256.860321 4.883665 0
860.118042 -256.860321 4.883665 0
860.118042 -256.860321 4.883665 0
860.118042 -256.860321 4.883665 0
860.118042 -256.860321 4.883665 0
860.118042 -256.860321 4.883665 0
860.118042 -256.860321 4.883665 0
860.118042 -256.860321 4.883665 0
860.118042 -256.860321 4.883665 0
860.118042 -256.860321 4.883665 0
860.118042 -256.860321 4.883665 0
860.118042 -256.860321 4.883665 0
860.118042 -256.860321 4.883665 0
860.118042 -256.860321 4.883665 0
860.118042 -256.860321 4.883665 0
860.118042 -256.860321 4.883665 0
860.118042 -256.860321 4.883665 0
860.118042 -256.860321 4.883665 0
860.118042 -256.860321 4.883665 0
860.118042 -256.860321 4.883665 0
860.118042 -256.860321 4.883665 0
860.118042 -256.860321 4.883665 0
860.118042 -256.860321 4.883665 0
860.118042 -256.860321 4.883665 0
860.118042 -256.860321 4.883665 0
860.118042 -256.860321 4.883665 0
860.118042 -256.860321 4.883665 0
860.118042 -256.860321 4.883665 0
860.118042 -256.860321 4.883665 0
860.118042 -256.860321 4.883665 0
860.118042 -256.860321 4.883665 0
860.118042 -256.860321 4.883665 0
860.118042 -256.860321 4.883665 0
860.118042 -256.860321 4.883665 0
860.118042 -256.860321 4.883665 0
860.118042 -256.860321 4.883665 0
860.118042 -256.860321 4.883665 0
860.118042 -256.860321 4.883665 0
860.118042 -256.860321 4.883665 0
860.118042 -256.860321 4.883665 0
860.118042 -256.860321 4.883665 0
860.118042 -256.860321 4.883665 0
860.118042 -256.860321 4.883665 0
860.118042 -256.860321 4.883665 0
860.118042 -256.860321 4.883665 0
860.118042 -256.860321 4.883665 0
860.118042 -256.860321 4.883665 0
860.118042 -256.860321 4.883665 0
860.118042 -256.860321 4.883665 0
860.118042 -256.860321 4.883665 0
860.118042 -256.860321 4.883665 0
860.118042 -256.860321 4.883665 0
860.118042 -256.860321 4.883665 0
860.118042 -256.860321 4.883665 0
860.118042 -256.860321 4.883665 0
860.118042 -256.860321 4.883665 0
860.118042 -256.860321 4.883665 0
860.118042 -256.860321 4.883665 0
860.118042 -256.860321 4.883665 0
860.118042 -256.860321 4.883665 0
860.118042 -256.860321 4.883665 0
860.118042 -256.860321 4.883665 0
860.118042 -256.860321 4.883665 0
860.118042 -256.860321 4.883665 0
860.118042 -256.860321 4.883665 0
860.118042 -256.860321 4.883665 0
860.118042 -256.860321 4.883665 0
860.118042 -256.860321 4.883665 0
860.118042 -256.860321 4.883665 0
860.118042 -256.860321 4.883665 0
860.118042 -256.860321 4.883665 0
860.118042 -256.860321 4.883665 0
860.118042 -256.860321 4.883665 0
860.118042 -256.860321 4.883665 0
860.118042 -256.860321 4.883665 0
860.118042 -256.860321 4.883665 0
860.118042 -256.860321 4.883665 0
860.118042 -256.860321 4.883665 0
860.118042 -256.860321 4.883665 0
860.118042 -256.860321 4.883665 0
860.118042 -256.860321 4.883665 0
860.118042 -256.860321 4.883665 0
860.118042 -256.860321 4.883665 0
860.118042 -256.860321 4.883665 0
860.118042 -256.860321 4.883665 0
860.118042 -256.860321 4.883665 0
860.118042 -256.860321 4.883665 0
860.118042 -256.860321 4.883665 0
860.118042 -256.860321 4.883665 0
860.118042 -256.860321 4.883665 0
860.118042 -256.860321 4.883665 0
860.118042 -256.860321 4.883665 0
860.118042 -256.860321 4.883665 0
860.118042 -256.860321 4.883665 0
860.118042 -256.860321 4.883665 0
860.118042 -256.860321 4.883665 0
860.118042 -256.860321 4.883665 0
860.118042 -256.860321 4.883665 0
860.118042 -256.860321 4.883665 0
860.118042 -256.860321 4.883665 0
860.118042 -256.860321 4.883665 0
860.118042 -256.860321 4.883665 0
860.118042 -256.860321 4.883665 0
860.118042 -256.860321 4.883665 0
860.118042 -256.860321 4.883665 0
860.118042 -256.860321 4.883665 0
860.118042 -256.860321 4.883665 0
860.118042 -256.860321 4.883665 0
860.118042 -256.860321 4.883665 0
860.118042 -256.860321 4.883665 0
860.118042 -256.860321 4.883665 0
860.118042 -256.860321 4.883665 0
860.118042 -256.860321 4.883665 0
860.118042 -256.860321 4.883665 0
860.118042 -256.860321 4.883665 0
860.118042 -256.860321 4.883665 0
860.118042 -256.860321 4.883665 0
860.118042 -256.860321 4.883665 0
860.118042 -256.860321 4.883665 0
860.118042 -256.860321 4.883665 0
860.118042 -256.860321 4.883665 0
860.118042 -256.860321 4.883665 0
860.118042 -256.860321 4.883665 0
860.118042 -256.860321 4.883665 0
860.118042 -256.860321 4.883665 0
860.118042 -256.860321 4.883665 0
860.118042 -256.860321 4.883665 0
860.118042 -256.860321 4.883665 0
860.118042 -256.860321 4.883665 0
860.118042 -256.860321 4.883665 0
860.118042 -256.860321 4.883665 0
860.118042 -256.860321 4.883665 0
860.118042 -256.860321 4.883665 0
860.118042 -256.860321 4.883665 0
860.118042 -256.860321 4.883665 0
860.118042 -256.860321 4.883665 0
860.118042 -256.860321 4.883665 0
860.118042 -256.860321 4.883665 0
860.118042 -256.860321 4.883665 0
860.118042 -256.860321 4.883665 0
860.118042 -256.860321 4.883665 0
860.118042 -256.860321 4.883665 0
860.118042 -256.860321 4.883665 0
860.118042 -256.860321 4.883665 0
860.118042 -256.860321 4.883665 0
860.118042 -256.860321 4.883665 0
860.118042 -256.860321 4.883665 0
860.118042 -256.860321 4.883665 0
860.118042 -256.860321 4.883665 0
860.118042 -256.860321 4.883665 0
860.118042 -256.860321 4.883665 0
860.118042 -256.860321 4.883665 0
860.118042 -256.860321 4.883665 0
860.118042 -256.860321 4.883665 0
860.118042 -256.860321 4.883665 0
860.118042 -256.860321 4.883665 0
860.118042 -256.860321 4.883665 0
860.118042 -256.860321 4.883665 0
860.118042 -256.860321 4.883665 0
860.118042 -256.860321 4.883665 0
860.118042 -256.860321 4.883665 0
860.118042 -256.860321 4.883665 0
860.118042 -256.860321 4.883665 0
860.118042 -256.860321 4.883665 0
860.118042 -256.860321 4.883665 0
860.118042 -256.860321 4.883665 0
860.118042 -256.860321 4.883665 0
860.118042 -256.860321 4.883665 0
860.118042 -256.860321 4.883665 0
860.118042 -256.860321 4.883665 0
860.118042 -256.860321 4.883665 0
860.118042 -256.860321 4.883665 0
860.118042 -256.860321 4.883665 0
860.118042 -256.860321 4.883665 0
860.118042 -256.860321 4.883665 0
860.118042 -256.860321 4.883665 0
860.118042 -256.860321 4.883665 0
860.118042 -256.860321 4.883665 0
860.118042 -256.860321 4.883665 0
860.118042 -256.860321 4.883665 0
860.118042 -256.860321 4.883665 0
860.118042 -256.860321 4.883665 0
860.118042 -256.860321 4.883665 0
860.118042 -256.860321 4.883665 0
860.118042 -256.860321 4.883665 0
860.118042 -256.860321 4.883665 0
860.118042 -256.860321 4.883665 0
860.118042 -256.860321 4.883665 0
860.118042 -256.860321 4.883665 0
860.118042 -256.860321 4.883665 0
860.118042 -256.860321 4.883665 0
860.118042 -256.860321 4.883665 0
860.118042 -256.860321 4.883665 0
965.480530 -238.483185 8.618895 17
860.118042 -256.860321 4.883665 0
860.118042 -256.860321 4.883665 0
860.118042 -256.860321 4.883665 0
860.118042 -256.860321 4.883665 0
860.118042 -256.860321 4.883665 0
967.574951 -237.519684 8.712450 19
860.118042 -256.860321 4.883665 0
860.118042 -256.860321 4.883665 0
906.961609 -248.245636 7.332964 14
860.118042 -256.860321 4.883665 0
968.003418 -236.715714 7.007853 21
906.832275 -248.007690 7.334904 10
860.118042 -256.860321 4.883665 0
964.374084 -237.241241 5.198926 20
907.193909 -247.866089 6.580394 19
906.495789 -247.941177 5.804214 19
907.079529 -247.700348 7.358163 28
860.118042 -256.860321 4.883665 0
962.036316 -237.122696 5.207171 37
906.304749 -247.778030 6.556810 27
906.809326 -247.624008 5.818292 9
907.548340 -247.345474 7.393173 7
860.118042 -256.860321 4.883665 0
961.400635 -236.680847 5.222595 20
906.750427 -247.432770 6.580768 16
860.118042 -256.860321 4.883665 0
907.271912 -247.272491 5.836516 4
907.410095 -247.105087 7.395621 24
860.118042 -256.860321 4.883665 0
907.043030 -247.254181 5.047402 6
955.096313 -237.133179 8.360853 17
860.118042 -256.860321 4.883665 0
968.849182 -234.141907 7.099284 27
906.775635 -246.977005 7.371904 21
860.118042 -256.860321 4.883665 0
902.110535 -248.032944 5.035280 22
945.878662 -238.564697 8.038842 35
961.685913 -235.078552 6.971558 58
943.323608 -238.772064 9.338929 38
860.118042 -256.860321 4.883665 0
860.118042 -256.860321 4.883665 0
947.129822 -237.815765 8.101688 22
860.118042 -256.860321 4.883665 0
943.125793 -238.344437 9.345621 37
860.118042 -256.860321 4.883665 0
947.374634 -237.278992 8.126209 22
944.354675 -237.607697 10.892649 16
955.960144 -235.239288 6.882709 12
942.475769 -238.031357 9.326843 37
860.118042 -256.860321 4.883665 0
860.118042 -256.860321 4.883665 0
950.171021 -236.142578 8.244762 31
941.138550 -237.880493 10.680730 21
860.118042 -256.860321 4.883665 0
941.306580 -237.846405 9.280715 27
860.118042 -256.860321 4.883665 0
860.118042 -256.860321 4.883665 0
948.490295 -236.039551 8.197966 31
941.424500 -237.358109 10.719845 22
900.879395 -247.214783 5.745658 24
899.621643 -247.384109 7.030211 6
860.118042 -256.860321 4.883665 0
860.118042 -256.860321 4.883665 0
900.137390 -247.209579 6.390734 12
941.700317 -236.834122 10.756511 41
900.635376 -247.044113 5.746957 7
899.771729 -247.127686 7.045289 28
860.118042 -256.860321 4.883665 0
900.267334 -247.086792 5.060758 2
899.764771 -247.075195 6.383788 18
943.635193 -235.886780 10.916969 48
900.382812 -246.882950 5.747481 30
899.566589 -246.957870 7.042578 35
860.118042 -256.860321 4.883665 0
899.964233 -246.937103 5.063614 10
900.046936 -246.783493 6.399903 26
942.871948 -235.609543 10.876147 33
899.995850 -246.757889 5.744067 11
899.607849 -246.722809 7.051737 16
860.118042 -256.860321 4.883665 0
900.049805 -246.696228 5.068632 5
899.931396 -246.591339 6.402114 17
941.249329 -235.570526 10.773863 31
899.885498 -246.561020 5.747117 22
900.448914 -246.281219 7.104671 7
860.118042 -256.860321 4.883665 0
860.118042 -256.860321 4.883665 0
900.034729 -246.339432 6.411475 22
942.157104 -234.870529 10.857210 35
945.153076 -234.366638 6.738803 30
938.675354 -235.815659 9.222626 21
944.934082 -234.329910 5.296579 37
945.846985 -233.786621 8.177522 25
940.084534 -234.969009 10.720810 13
895.024048 -247.433853 5.649121 2
896.343506 -246.950104 6.890379 65
860.118042 -256.860321 4.883665 0
896.379395 -246.898849 6.281742 43
940.155273 -234.499329 10.740725 26
894.826416 -247.294510 5.648344 20
895.195557 -247.067444 6.832385 55
894.671997 -247.171722 6.219879 44
939.720520 -234.173233 10.722224 51
895.146118 -247.008621 5.658400 26
895.301758 -246.840729 6.843040 55
860.118042 -256.860321 4.883665 0
940.780823 -234.091064 5.290357 44
894.541382 -247.016800 6.219026 50
895.542114 -246.561325 7.487999 31
894.938293 -246.873779 5.657045 21
895.030518 -246.720444 6.831586 61
941.428345 -232.833252 12.278257 13
895.325745 -246.723618 5.062656 6
894.595276 -246.809326 6.223916 55
895.557739 -246.356934 7.494781 32
894.829163 -246.711945 5.657247 46
894.899963 -246.562515 6.829791 59
968.272095 -224.277390 14.739289 29
895.210571 -246.562531 5.064151 11
894.905029 -246.525070 6.239451 60
894.929382 -246.347992 7.453059 46
895.057312 -246.447372 5.664503 40
895.187744 -246.281174 6.849394 57
966.677612 -224.154205 14.613414 19
894.954834 -246.445282 5.063855 5
894.671387 -246.398804 6.233214 51
894.862183 -246.169296 7.453493 42
895.012329 -246.266830 5.665843 46
895.113281 -246.108124 6.849071 49
965.068542 -224.054230 14.482752 43
895.133911 -246.194092 5.065314 8
894.782349 -246.171265 6.239638 57
894.329346 -246.140305 7.418342 33
894.752075 -246.153275 5.661687 38
894.634644 -246.051102 6.825796 62
964.351074 -223.655975 14.434283 57
895.099426 -246.001022 5.065395 25
894.861755 -245.936081 6.245846 49
894.621643 -245.836319 7.444224 20
894.806213 -245.915726 5.664232 36
894.880249 -245.751541 6.842957 56
963.175049 -223.361633 14.343877 39
894.848206 -245.851913 5.063578 3
895.301575 -245.562378 6.264733 17
937.845215 -231.501160 10.662809 20
957.403015 -225.522186 7.070477 31
894.505676 -245.642868 6.824519 53
961.497925 -223.228928 14.204416 31
963.457581 -223.426025 5.421072 15
894.906921 -245.459793 6.251194 6
961.125732 -223.234360 12.403526 34
962.213745 -223.298035 7.183305 37
938.143311 -230.884430 9.293215 41
959.789490 -223.118591 14.061049 46
961.753174 -223.307343 5.403881 21
943.441162 -229.006134 8.161452 23
959.640991 -223.067245 12.304054 34
960.592896 -223.171204 7.144994 25
938.814453 -230.140442 9.334583 32
958.238098 -222.988464 13.929113 50
960.166260 -223.171829 5.394072 31
937.640869 -230.427216 7.934018 14
889.196289 -246.790649 7.052794 2
958.973999 -223.059402 7.102234 30
938.328552 -229.788620 9.311270 33
956.696777 -222.875870 13.796266 38
958.544006 -223.075409 5.377182 37
937.856079 -229.842499 7.941096 21
889.162231 -246.609634 7.052584 36
957.411377 -222.951645 7.065518 40
937.670532 -229.496796 9.274397 18
889.206543 -246.427826 7.570191 37
957.124939 -222.922241 5.358166 29
937.851318 -229.333405 7.937717 33
888.963013 -246.488983 7.038450 41
956.407288 -222.670303 7.036128 70
956.404480 -222.251617 10.333776 83
889.294495 -246.201187 7.579775 26
946.255371 -226.159210 5.298694 16
956.429199 -222.112701 8.663008 48
888.542297 -246.448792 7.006820 42
888.912964 -246.445435 5.522621 4
888.618774 -246.428589 6.495565 12
888.911255 -246.149841 7.545473 51
956.518677 -221.872208 5.334620 39
888.771240 -246.334564 6.005103 0
888.150757 -246.407120 6.977736 42
888.743530 -246.318481 5.517118 11
888.629456 -246.234818 6.494348 6
888.953125 -245.939743 7.550035 45
888.930847 -246.213928 5.012086 3
888.668091 -246.185913 5.998693 37
888.640442 -246.036301 7.013033 51
889.082275 -246.004395 5.520818 33
888.381592 -246.140686 6.478107 24
888.981506 -245.737976 7.553101 53
888.855469 -246.053741 5.007517 54
888.485107 -246.066162 5.987713 38
887.767273 -246.183548 6.945301 36
888.535950 -246.023117 5.502318 14
888.361267 -245.963287 6.474107 47
888.390015 -245.778687 7.497361 50
888.903564 -245.847763 5.001654 3
888.477966 -245.883438 5.983156 29
889.169006 -245.450150 7.048158 33
888.743958 -245.755356 5.502666 10
888.535950 -245.706970 6.480912 1
888.369751 -245.598282 7.492423 37
948.931519 -222.300751 5.223963 27
888.383606 -245.736237 5.975262 47
888.285034 -245.611847 6.979651 33
888.537048 -245.651443 5.492557 3
888.825317 -245.405518 6.491867 11
888.636414 -245.302917 7.515423 35
947.724243 -222.199402 5.199947 36
888.435913 -245.528519 5.971225 47
888.537903 -245.322617 6.993208 41
945.842041 -222.487152 6.696127 19
888.374695 -245.401886 6.461952 31
888.648865 -245.110229 7.513089 6
945.516602 -222.521362 5.166622 37
888.225525 -245.430328 5.956161 35
888.229675 -245.263260 6.967260 37
944.658508 -222.410675 6.652308 21
888.405640 -245.202103 6.457832 6
942.927551 -222.208374 12.502499 28
936.801514 -225.526230 5.111140 17
888.204773 -245.256851 5.948087 6
942.619324 -222.288712 10.983099 35
860.118042 -256.860321 4.883665 0
942.691650 -222.295380 9.459873 27
941.876099 -222.110336 12.395304 40
936.533875 -225.141495 5.087398 15
942.489380 -222.289871 7.984040 34
941.904297 -222.053329 10.907816 53
942.424011 -222.256149 6.548901 21
941.890747 -222.102829 9.394044 41
941.928345 -221.556931 12.382992 47
942.213135 -222.257202 5.071360 31
941.941223 -221.994492 7.937613 54
941.923645 -221.513245 10.893886 45
941.924744 -221.938477 6.514490 31
941.904175 -221.567154 9.365292 50
941.998840 -220.991379 12.366003 42
941.954468 -221.843674 5.036785 39
942.006653 -221.442490 7.911568 40
941.974304 -220.964615 10.874532 39
933.407593 -225.105865 6.316026 24
941.932190 -221.027359 9.344896 40
942.015076 -220.453079 12.351187 43
936.684204 -223.604004 4.992940 20
942.009277 -220.915146 7.876169 37
