# This PCD file was generated using the MATLAB® pcwrite function
# from Computer Vision Toolbox®.
# .PCD v.7 - Point Cloud Data file format
VERSION .7
FIELDS x y z intensity
SIZE 4 4 4 1
TYPE F F F U
COUNT 1 1 1 1
WIDTH 1378
HEIGHT 1
VIEWPOINT 0 0 0 1 0 0 0
POINTS 1378
DATA ascii
882.154663 -266.042969 4.541719 31
872.380615 -262.027130 4.059241 41
877.241577 -264.055725 4.313941 16
887.410828 -268.305756 4.932179 10
870.803589 -261.423401 3.978335 52
871.290161 -261.605103 4.324624 2
882.183838 -266.207764 4.544383 31
871.083923 -261.554565 4.148787 44
877.262634 -264.182312 4.315372 17
887.507507 -268.533203 4.936809 11
870.696899 -261.450104 3.987332 59
871.219055 -261.651550 4.328354 1
882.189209 -266.362030 4.547168 30
871.232727 -261.695892 4.138437 26
877.300476 -264.317291 4.316698 17
887.625854 -268.775238 4.944223 14
870.588257 -261.474762 3.996365 57
874.453552 -263.149170 4.163338 21
882.311401 -266.568024 4.548354 36
870.921021 -261.634064 4.160443 20
868.665405 -260.620453 4.607438 14
888.085815 -269.167236 4.948911 25
869.432983 -261.028778 4.096944 39
868.684814 -260.670807 4.459428 0
868.451416 -260.551727 4.764026 46
870.594543 -261.560883 4.182627 21
868.711609 -260.699554 4.606970 19
888.391174 -269.496674 4.956269 45
870.526489 -261.591492 4.001659 55
868.672546 -260.724579 4.461248 0
868.462952 -260.614044 4.764766 62
870.660156 -261.663422 4.179748 10
868.572632 -260.694458 4.613501 54
888.043152 -269.534760 4.964025 52
869.018188 -260.964844 4.133569 51
868.632568 -260.763733 4.464262 10
868.514099 -260.694305 4.766295 61
870.390259 -261.610504 4.198740 4
868.482239 -260.710449 4.617790 55
868.413147 -260.667999 4.911460 16
868.789124 -260.918915 4.153585 18
868.579773 -260.797607 4.468332 38
868.483032 -260.737671 4.769257 59
868.619202 -260.846436 4.321437 57
868.429443 -260.743286 4.620882 46
868.505798 -260.768250 4.913743 31
868.659119 -260.916138 4.166105 47
868.583374 -260.857758 4.470085 60
868.391724 -260.750610 4.772606 59
868.626709 -260.908661 4.322163 42
868.429138 -260.799377 4.623704 28
868.727051 -260.930573 4.918257 11
868.647888 -260.968933 4.167951 37
868.545410 -260.896942 4.473105 41
868.465576 -260.842407 4.773987 48
868.636292 -260.970947 4.322896 22
868.538574 -260.908936 4.621860 39
868.971985 -261.107452 4.921565 8
868.662354 -261.035309 4.167618 30
868.517334 -260.941406 4.477057 20
868.393982 -260.864838 4.778220 46
868.599304 -261.011169 4.326899 27
868.246460 -260.823334 4.633444 53
868.778687 -261.072998 4.924485 41
868.907227 -261.216675 4.147826 5
868.265808 -260.873810 4.491433 28
868.375854 -260.912506 4.781145 57
868.579163 -261.059784 4.329795 34
868.180908 -260.845917 4.638699 47
868.899963 -261.191956 4.928493 1
868.752563 -261.198395 4.163569 4
868.203247 -260.897491 4.496677 33
868.158020 -260.859528 4.786352 49
868.554077 -261.104309 4.333758 18
868.180603 -260.901001 4.641542 43
868.945984 -261.276154 4.932918 14
868.856995 -261.311737 4.156624 15
868.138672 -260.920105 4.502934 52
868.217041 -260.944000 4.789825 74
872.627991 -263.253601 4.064532 13
868.119019 -260.923676 4.645811 41
868.851685 -261.287048 4.936298 0
868.967285 -261.428223 4.149636 3
868.108704 -260.959534 4.506984 50
868.030945 -260.902740 4.794918 67
872.665527 -263.359558 4.066465 12
868.099976 -260.969330 4.649775 56
868.685242 -261.261230 4.940149 9
868.941162 -261.475739 4.154531 15
868.339722 -261.133820 4.499285 38
868.233276 -261.061584 4.796427 62
868.802063 -261.408081 4.326412 21
868.172852 -261.061096 4.651152 80
884.892395 -269.814423 5.055074 27
868.919006 -261.524323 4.158421 9
868.104187 -261.065613 4.513741 43
868.045227 -261.018311 4.803554 53
872.831482 -263.619537 4.065699 10
868.059937 -261.054626 4.658820 36
884.551514 -269.802704 5.066905 27
868.643921 -261.434448 4.185169 21
868.330200 -261.240814 4.507002 18
868.155640 -261.131012 4.805649 43
872.915405 -263.751526 4.064278 10
868.066528 -261.112885 4.662626 49
884.181091 -269.771362 5.080026 24
871.118347 -262.847504 3.981758 21
868.322021 -261.291748 4.510900 14
868.161316 -261.187256 4.810493 38
872.954895 -263.859589 4.068175 14
868.076172 -261.171234 4.666442 49
883.823669 -269.741241 5.091174 23
871.106689 -262.916382 3.987266 23
868.146851 -261.249908 4.523053 14
868.323975 -261.331207 4.814149 25
873.011108 -263.978058 4.071924 14
868.124329 -261.250458 4.669981 54
883.506897 -269.727142 5.104156 27
871.168213 -263.023865 3.987266 21
868.160400 -261.311340 4.527821 11
868.046204 -261.231812 4.821082 28
873.113770 -264.122498 4.071320 14
868.070740 -261.274353 4.676258 56
883.194031 -269.713165 5.119152 26
868.617859 -261.649323 4.203556 0
868.192749 -261.382172 4.530469 0
868.161438 -261.349670 4.826089 11
873.185791 -264.250275 4.073937 14
868.075439 -261.329590 4.681119 46
867.982788 -261.267517 4.970103 0
871.288147 -263.240814 3.989212 15
876.226685 -266.030182 4.177254 26
868.306274 -261.485199 4.829848 2
873.225220 -264.360382 4.079792 14
868.093933 -261.392151 4.685884 36
882.227417 -269.470001 5.142240 11
871.336792 -263.343018 3.991270 13
876.248840 -266.149994 4.187834 28
868.147095 -261.447601 4.836976 1
873.276489 -264.476746 4.084565 15
868.142029 -261.474426 4.690359 0
882.172546 -269.588196 5.161536 26
871.351807 -263.426544 3.997581 7
876.367737 -266.325958 4.193637 26
868.069885 -261.454956 4.843503 1
873.336609 -264.599304 4.090244 14
878.884399 -267.830414 4.435585 22
882.110840 -269.699188 5.178954 24
871.516846 -263.598358 3.991660 7
876.384888 -266.444672 4.205220 27
868.033142 -261.485260 4.850715 0
873.371094 -264.706329 4.098143 13
878.990967 -268.017273 4.448110 21
881.970276 -269.761322 5.197070 18
871.571411 -263.704773 3.995655 8
876.236450 -266.460602 4.224272 30
881.657898 -269.664764 4.806708 25
860.301453 -256.924683 4.887280 0
879.174500 -268.251923 4.460951 24
882.024109 -269.938141 5.219588 22
871.599243 -263.795624 4.002866 10
876.147156 -266.510925 4.241849 26
881.398132 -269.649139 4.826960 18
873.570312 -264.998322 4.106846 14
879.405334 -268.515686 4.472379 28
881.466431 -269.744293 5.231340 1
871.691223 -263.925842 4.003516 11
876.161499 -266.623596 4.255547 19
881.175903 -269.651428 4.849993 23
873.636292 -265.125092 4.115462 14
879.809753 -268.886475 4.482281 32
881.203857 -269.721527 5.248730 9
871.847290 -264.095520 4.001603 10
876.176819 -266.735321 4.269270 19
880.920288 -269.629913 4.870387 20
873.723083 -265.264313 4.121902 14
880.067078 -269.172943 4.497343 34
886.447815 -273.103912 5.369581 23
871.921509 -264.215424 4.007397 11
876.293762 -266.909332 4.280106 19
880.680542 -269.612762 4.891754 24
873.817688 -265.408752 4.129267 14
880.210999 -269.388763 4.514416 34
880.750793 -269.710785 5.287080 11
871.984863 -264.329041 4.012277 11
876.381042 -267.066742 4.294169 20
880.412231 -269.574982 4.915437 20
873.953674 -265.580139 4.136237 15
880.262268 -269.546478 4.535325 32
885.873108 -273.076477 5.416778 25
872.168457 -264.518372 4.010067 14
876.534424 -267.264679 4.305656 20
880.199341 -269.566498 4.937735 25
874.061096 -265.732910 4.144480 16
880.120300 -269.581726 4.561000 27
880.291321 -269.677887 5.326869 6
872.275146 -264.661041 4.015517 16
876.720337 -267.483337 4.316843 22
879.991394 -269.557129 4.960072 23
874.176453 -265.890839 4.152647 16
879.934143 -269.582947 4.587207 29
885.331360 -273.049927 5.468094 23
872.381836 -264.802704 4.019989 15
876.899231 -267.700897 4.330024 23
879.796387 -269.552094 4.985372 22
874.307495 -266.060181 4.162640 17
879.379517 -269.341583 4.618973 26
879.603638 -269.478485 5.360201 2
872.459961 -264.925751 4.028734 16
877.079163 -267.917480 4.344230 23
879.281250 -269.334442 5.005803 20
874.476929 -266.254395 4.170271 18
879.177734 -269.324432 4.645500 24
879.222534 -269.346893 5.377382 21
872.573547 -265.072632 4.036125 17
877.282715 -268.151672 4.360165 24
879.090393 -269.321503 5.030286 20
874.582336 -266.407166 4.182506 17
879.014526 -269.327179 4.671770 25
879.027771 -269.331787 5.397894 20
872.644775 -265.190552 4.044949 15
877.508850 -268.401398 4.374869 25
878.918274 -269.320007 5.054607 17
874.715393 -266.577637 4.195485 18
878.811951 -269.302032 4.700461 21
878.840027 -269.316864 5.419431 20
865.750305 -260.603729 4.522647 4
878.072876 -268.877899 4.382215 30
878.763062 -269.322906 5.078907 31
874.863098 -266.759399 4.207287 18
878.788757 -269.392090 4.725481 25
878.742859 -269.360168 5.445125 32
865.731873 -260.621490 4.531199 8
878.279236 -269.118256 4.402034 30
878.778320 -269.437897 5.106563 22
875.029602 -266.952637 4.218927 17
878.804016 -269.505035 4.751180 24
878.759033 -269.477203 5.473742 18
865.701599 -260.630005 4.540897 10
878.622437 -269.451752 4.418467 37
878.766907 -269.535278 5.135478 21
875.177368 -267.132507 4.234770 17
878.687378 -269.527954 4.781220 24
878.763428 -269.582947 5.502548 23
865.684204 -260.645782 4.549496 10
864.352661 -259.716400 4.790518 34
878.741821 -269.619324 5.163617 17
865.724121 -260.674988 4.657073 6
878.509766 -269.503387 4.809004 20
878.731445 -269.663879 5.531723 22
865.671692 -260.665680 4.558028 10
864.330505 -259.722015 4.797309 10
865.704041 -260.672241 4.976120 4
864.345337 -259.741791 4.721939 3
865.692322 -260.676788 4.871953 7
865.679688 -260.670959 5.084071 6
864.686707 -260.000824 4.624900 24
865.678467 -260.685425 4.774692 10
865.684631 -260.686981 4.984733 7
864.350769 -259.766052 4.728454 31
865.675903 -260.693604 4.881534 8
865.659302 -260.685669 5.092680 9
864.546448 -259.923828 4.639936 41
865.666992 -260.704346 4.783249 6
865.665283 -260.700745 4.994366 7
864.322693 -259.765564 4.736349 7
865.656555 -260.706360 4.890188 6
865.650757 -260.706665 5.101205 6
864.364868 -259.813934 4.657492 17
865.675232 -260.735748 4.792626 0
865.670532 -260.732086 5.003732 4
864.298645 -259.767151 4.743217 0
877.954834 -269.475983 4.928299 18
878.094482 -269.595154 5.633540 6
864.341797 -259.816559 4.665342 33
877.914490 -269.499237 4.605569 20
882.694031 -272.912292 5.413003 22
876.674194 -268.642029 4.325336 26
877.871155 -269.499695 4.960460 15
877.934021 -269.565918 5.658492 5
864.308899 -259.809967 4.674346 23
877.780701 -269.482819 4.638365 19
882.515442 -272.888885 5.449759 19
877.165344 -269.067932 4.337444 29
877.796387 -269.525604 4.990613 4
877.801147 -269.554413 5.686187 2
864.312439 -259.830200 4.680937 8
877.666687 -269.476868 4.673023 18
877.815552 -269.589966 5.363427 3
877.162598 -269.136505 4.367000 30
877.742371 -269.563049 5.022610 2
877.664490 -269.534790 5.714037 2
864.110352 -259.698792 4.697859 2
877.567505 -269.478210 4.703590 20
877.636597 -269.537354 5.391793 4
877.455078 -269.416962 4.390336 25
877.628479 -269.553101 5.056352 6
877.605591 -269.568085 5.744101 4
864.097229 -259.703644 4.705704 16
877.446838 -269.458099 4.737518 19
882.129700 -272.897339 5.565005 16
860.301453 -256.924683 4.887280 0
877.487122 -269.519440 5.086478 3
877.462219 -269.535309 5.772198 6
864.096863 -259.717804 4.713407 12
877.335022 -269.442230 4.772394 22
877.449219 -269.542267 5.452925 2
877.306274 -269.436951 4.458313 22
881.941711 -272.867828 5.180754 29
877.382812 -269.547119 5.802628 2
875.098267 -267.864014 4.235090 19
877.236145 -269.431610 4.805213 21
877.338440 -269.526337 5.483806 3
877.245789 -269.451294 4.493769 23
877.320679 -269.525970 5.153664 5
877.363464 -269.598419 5.837478 1
875.326172 -268.081848 4.254471 15
877.160889 -269.434570 4.838846 21
881.858948 -272.949615 5.686810 14
877.160828 -269.444031 4.528576 22
881.714722 -272.853302 5.264134 27
877.197693 -269.539093 5.864040 1
875.635681 -268.359589 4.272933 25
877.102478 -269.445953 4.874372 19
877.169250 -269.521759 5.548213 5
877.072998 -269.430725 4.563498 20
877.197876 -269.548523 5.219696 4
881.560974 -272.870636 6.161336 3
875.878418 -268.584778 4.293221 27
877.041199 -269.452240 4.907993 11
877.093140 -269.520660 5.580927 5
877.035339 -269.451630 4.599911 20
881.508728 -272.835327 5.350675 24
881.505127 -272.899231 6.203514 0
876.505554 -269.097839 4.303064 30
877.014465 -269.479370 4.942320 5
877.032898 -269.525970 5.613573 5
876.957520 -269.437531 4.634891 20
877.014404 -269.512634 5.286701 7
881.416931 -272.899048 6.245160 2
876.873169 -269.415039 4.325942 37
876.999512 -269.512817 4.979565 5
876.985413 -269.539642 5.650097 1
876.881775 -269.420532 4.670941 21
881.356323 -272.838562 5.435993 21
881.368225 -272.923859 6.288447 1
876.854492 -269.437347 4.360404 21
876.967041 -269.528778 5.014102 4
876.876221 -269.500702 5.680467 2
876.806091 -269.400513 4.707055 24
876.914917 -269.521820 5.357111 2
881.292053 -272.921997 6.332180 4
876.814331 -269.439178 4.396207 21
876.875610 -269.496399 5.049410 3
876.853516 -269.523926 5.715893 7
876.744263 -269.386810 4.743093 23
876.851013 -269.511017 5.391079 4
881.213074 -272.914001 6.372028 27
876.782043 -269.444214 4.433975 22
876.892456 -269.541595 5.086540 1
876.788696 -269.511169 5.750899 1
876.691345 -269.376343 4.779101 24
881.253357 -272.901062 5.571284 13
881.203979 -272.954803 6.419145 33
876.739075 -269.436981 4.470957 21
881.170349 -272.832916 5.183280 24
881.236572 -272.948334 6.029326 31
876.671997 -269.386658 4.815813 22
881.229675 -272.920532 5.619788 14
881.159607 -272.962738 6.465804 12
876.712891 -269.438171 4.507832 21
881.135010 -272.838043 5.229036 21
881.210938 -272.965698 6.074866 27
876.678223 -269.413605 4.852282 21
876.703186 -269.485809 5.497018 2
881.097656 -272.952179 6.507778 4
876.692688 -269.441467 4.544687 22
876.740906 -269.502319 5.194759 3
881.168762 -272.966736 6.122680 9
876.685547 -269.436554 4.888839 15
876.705505 -269.509644 5.533535 7
881.030945 -272.933502 6.549902 5
876.674561 -269.440826 4.581634 22
876.711853 -269.498413 5.230729 8
881.094299 -272.935883 6.165028 4
876.727356 -269.483337 4.926040 8
876.653809 -269.488220 5.570779 6
881.001587 -272.938843 6.597679 4
876.649658 -269.432007 4.618723 19
876.725159 -269.521515 5.268308 8
881.079834 -272.947510 6.210734 5
876.721069 -269.488953 4.962903 7
876.677917 -269.520569 5.608209 2
880.933167 -272.909088 6.639028 5
876.647400 -269.436768 4.656622 20
876.714966 -269.524078 5.306220 4
881.010498 -272.910828 6.256226 3
876.718811 -269.492706 4.999825 8
876.738525 -269.576843 5.648288 2
880.871704 -272.878540 6.681423 7
876.612793 -269.411713 4.693013 20
876.697998 -269.516449 5.342318 3
881.018921 -272.930054 6.303868 3
876.718628 -269.494476 5.037795 8
876.632141 -269.501038 5.681445 2
880.854492 -272.878143 6.729371 9
876.594055 -269.396057 4.730272 20
876.704712 -269.523407 5.380208 2
880.994995 -272.918457 6.350023 4
876.735229 -269.506653 5.074617 7
876.634888 -269.504883 5.718384 2
880.880676 -272.905823 6.778911 6
876.596008 -269.390869 4.767397 21
876.692810 -269.512909 5.418388 3
881.015381 -272.937012 6.400730 4
876.734253 -269.499420 5.111773 8
876.618103 -269.490265 5.754630 1
880.879456 -272.907806 6.826875 7
876.626587 -269.404388 4.804250 21
876.721313 -269.528381 5.455191 6
881.005493 -272.925720 6.445936 4
876.735352 -269.491241 5.149958 5
881.111572 -272.943726 6.043907 5
880.907837 -272.927582 6.879590 6
876.667053 -269.422119 4.841054 21
876.699829 -269.501617 5.491671 8
881.000610 -272.913605 6.493181 4
876.758118 -269.494568 5.186992 1
881.142151 -272.953430 6.090841 8
880.906860 -272.918518 6.924787 4
876.717468 -269.443085 4.878832 17
876.722595 -269.505005 5.531704 3
881.071411 -272.955414 6.547610 5
881.151917 -272.829224 5.314311 27
881.192505 -272.975677 6.141595 23
880.941345 -272.932404 6.975650 8
876.795471 -269.480713 4.916376 8
876.766113 -269.520813 5.569561 1
881.091309 -272.953888 6.595736 4
881.178955 -272.821869 5.362588 25
881.217407 -272.972321 6.191781 38
880.947510 -272.919586 7.024956 12
876.877502 -269.517426 4.952955 6
876.750732 -269.487183 5.605211 1
881.103455 -272.939178 6.643106 8
876.858398 -269.507294 5.301167 2
881.211975 -272.940125 6.236444 40
880.977295 -272.919312 7.074097 18
876.920288 -269.521210 4.991062 5
876.841614 -269.530212 5.647696 2
881.173706 -272.964935 6.696869 28
876.876648 -269.492493 5.337563 3
881.226318 -272.918457 6.283970 31
880.991516 -272.902618 7.121517 13
876.945496 -269.506592 5.028482 5
876.838257 -269.497864 5.682369 6
881.195923 -272.948456 6.744318 37
881.371643 -272.857452 5.507677 27
881.260376 -272.907288 6.334357 5
881.061890 -272.923431 7.176386 9
877.029724 -269.534332 5.065259 8
876.899780 -269.511139 5.722355 2
881.201538 -272.915527 6.790043 28
877.043091 -269.548035 5.416107 3
881.311340 -272.902466 6.381680 2
881.121521 -272.931885 7.227468 22
877.049255 -269.506561 5.102931 2
876.976196 -269.531799 5.763249 2
881.254395 -272.911865 6.842352 6
877.040955 -269.505768 5.453993 3
881.316162 -272.859528 6.427612 4
881.149841 -272.910583 7.276044 33
877.107117 -269.505676 5.139199 0
876.999634 -269.508087 5.798852 2
881.349670 -272.936188 6.894250 4
881.660645 -272.921295 5.654572 22
881.420410 -272.886108 6.481500 5
881.220520 -272.916351 7.330229 13
877.197571 -269.524628 5.178186 4
881.564758 -272.890289 6.092924 2
881.366455 -272.896545 6.940163 9
877.181396 -269.518616 5.528325 5
881.484436 -272.876617 6.528977 4
881.333557 -272.949219 7.387022 6
877.366760 -269.598389 5.216350 0
877.220703 -269.580017 5.882281 1
881.453064 -272.904694 6.994364 3
877.253296 -269.519135 5.568622 5
881.614441 -272.912811 6.583771 1
881.370117 -272.919037 7.433818 5
877.357056 -269.535858 5.250630 3
881.664673 -272.837585 6.187468 2
881.554626 -272.918182 7.046515 5
877.319336 -269.512451 5.605045 3
881.656128 -272.876740 6.630712 9
881.417603 -272.892212 7.484591 3
877.505798 -269.585205 5.291222 2
881.798889 -272.865814 6.238445 5
881.653320 -272.924591 7.099803 10
877.457214 -269.555511 5.644724 5
881.795227 -272.909149 6.684622 5
881.553589 -272.926605 7.542447 5
882.077759 -272.869507 5.441345 23
881.936157 -272.890106 6.290518 5
881.772766 -272.940552 7.155977 9
877.531311 -269.547058 5.683219 1
881.915710 -272.923065 6.736844 4
881.594421 -272.885498 7.588490 7
877.628540 -269.545532 5.361581 6
882.095093 -272.927948 6.343397 6
881.899170 -272.957642 7.209157 8
877.631042 -269.553162 5.720514 8
882.059998 -272.948578 6.790920 5
881.700195 -272.887146 7.643909 6
877.810974 -269.608704 5.403024 1
882.221802 -272.934967 6.393788 3
882.066040 -272.999786 7.267980 4
877.747559 -269.567719 5.759702 3
882.249573 -273.002258 6.849595 2
881.881775 -272.939697 7.706574 6
882.520081 -272.924805 5.582056 17
882.330933 -272.923523 6.442492 3
882.191711 -273.005920 7.324387 4
877.847534 -269.565857 5.799165 2
882.344910 -272.981476 6.898438 5
881.996643 -272.938538 7.761089 4
877.983398 -269.581177 5.473334 1
882.597412 -273.023041 6.502526 28
882.308716 -272.998688 7.375036 4
877.935730 -269.552673 5.834817 1
882.541626 -273.028320 6.956287 10
882.145020 -272.957275 7.821327 4
865.658203 -260.734283 5.074651 0
865.663574 -260.771881 5.284932 7
882.449402 -273.006134 7.430478 5
865.649902 -260.730408 5.183722 0
882.622437 -272.988159 7.002477 32
882.348633 -273.009399 7.885095 4
865.657776 -260.709473 5.084172 6
865.647339 -260.736664 5.293606 12
882.573486 -272.995178 7.484237 29
865.647461 -260.703522 5.193279 6
882.733826 -272.964752 7.051442 27
882.501221 -273.019165 7.942537 15
865.658325 -260.683685 5.093718 9
865.630188 -260.698395 5.301339 36
882.659363 -272.952118 7.530507 29
865.646118 -260.675659 5.201859 9
865.632507 -260.710754 5.410114 5
882.584106 -272.974121 7.992839 31
865.683533 -260.674469 5.104018 7
865.653381 -260.689148 5.311632 55
865.623047 -260.712952 5.524055 5
865.672241 -260.667511 5.213142 6
865.640991 -260.690155 5.419584 6
865.636963 -260.741699 5.638536 0
878.712158 -269.656097 5.658835 17
865.668762 -260.671692 5.321064 23
865.640320 -260.698578 5.535431 6
878.662476 -269.626770 6.031329 4
865.652405 -260.670593 5.429044 5
865.620850 -260.702423 5.644295 8
878.717224 -269.562836 5.689821 18
883.526672 -273.020050 6.804522 4
865.643921 -260.673828 5.543967 6
883.688232 -272.979858 6.380940 3
883.514099 -273.054718 7.275850 7
865.628357 -260.680786 5.653782 12
878.728271 -269.470673 5.720808 18
883.698669 -273.015106 6.854352 4
865.656311 -260.655304 5.553410 0
883.917358 -273.010284 6.431266 4
883.685120 -273.048798 7.327698 4
865.659485 -260.673737 5.665061 4
878.727539 -269.368195 5.747962 20
883.936768 -273.047852 6.909668 9
883.659851 -273.067749 7.828309 5
884.228394 -273.088776 6.488925 32
883.928101 -273.086700 7.386926 4
883.508850 -273.035980 8.291454 4
878.732788 -269.268829 5.775075 22
884.170959 -273.075439 6.963076 32
883.823120 -273.048645 7.879401 4
884.379089 -273.054199 6.532288 3
884.086548 -273.060455 7.437148 34
883.716370 -273.047180 8.355097 4
878.899597 -269.272491 5.811700 19
884.361023 -273.066925 7.013056 3
884.088867 -273.096222 7.944522 18
884.585022 -273.053009 6.580180 3
884.293396 -273.062408 7.490979 4
883.965393 -273.082367 8.420408 5
879.074402 -269.278290 5.845313 19
884.580811 -273.072144 7.065872 4
884.307495 -273.104584 8.005270 4
884.814697 -273.061432 6.630970 4
884.508179 -273.064575 7.546839 7
884.113159 -273.043884 8.471843 13
879.262024 -269.290405 5.880847 15
884.844971 -273.102478 7.121346 4
884.489868 -273.082947 8.057495 4
884.993286 -273.030487 6.674373 4
884.782166 -273.101257 7.606223 4
884.382141 -273.080627 8.542206 4
880.063599 -269.692749 5.950752 1
885.125000 -273.137238 7.178795 4
884.680176 -273.063477 8.110706 4
885.318726 -273.092285 6.730442 5
885.006104 -273.099609 7.661201 5
884.637390 -273.103973 8.606792 3
880.274231 -269.706421 5.986350 2
885.423950 -273.177399 7.235208 4
884.953369 -273.092224 8.176254 6
885.640442 -273.143951 6.785707 35
885.312866 -273.146149 7.725514 5
884.875122 -273.108826 8.669694 4
885.908936 -273.153564 6.327518 6
885.606689 -273.139618 7.281772 33
885.237488 -273.123199 8.239800 7
885.812500 -273.093811 6.827485 7
885.560669 -273.147064 7.779538 35
885.083496 -273.087891 8.727013 7
880.740051 -269.748901 6.062413 2
885.864502 -273.142792 7.336790 11
885.515808 -273.145050 8.303514 34
886.136414 -273.136505 6.880948 2
885.704163 -273.079285 7.823567 27
885.377563 -273.120239 8.797572 16
886.467285 -273.174530 6.420421 3
886.151978 -273.159607 7.389644 8
885.677063 -273.084778 8.350460 32
886.472290 -273.179565 6.937454 4
886.054688 -273.135925 7.891851 3
885.600830 -273.101654 8.855905 18
886.777649 -273.198792 6.468213 5
886.444519 -273.175598 7.444538 8
886.011841 -273.130066 8.419918 4
886.715637 -273.160156 6.982883 6
886.320618 -273.133240 7.946026 4
885.881409 -273.111603 8.922878 12
887.178894 -273.269318 6.522414 34
886.778564 -273.209656 7.505226 6
886.335938 -273.164032 8.487568 4
887.155334 -273.254730 7.043741 30
886.596497 -273.132874 8.002194 12
886.197571 -273.140503 8.994602 7
887.443237 -273.251343 6.564900 4
887.098999 -273.230316 7.561138 36
886.596069 -273.150330 8.546950 4
887.405823 -273.227600 7.092363 3
887.060791 -273.241425 8.082865 17
886.476440 -273.139343 9.058801 4
887.682983 -273.214783 6.605674 4
887.321899 -273.186462 7.606996 11
887.038696 -273.244446 8.629835 12
887.653503 -273.195251 7.136082 4
887.293579 -273.201874 8.131675 5
860.301453 -256.924683 4.887280 0
888.013672 -273.226501 6.653813 12
887.743164 -273.255737 7.674309 5
887.351379 -273.253082 8.693969 4
888.125183 -273.289612 7.199078 5
887.623108 -273.216827 8.192745 5
860.301453 -256.924683 4.887280 0
888.530884 -273.340820 6.711579 17
888.123169 -273.292847 7.734124 5
887.657349 -273.248566 8.757351 4
888.539856 -273.342560 7.258705 13
887.968628 -273.233246 8.256851 9
860.301453 -256.924683 4.887280 0
888.724670 -273.262085 6.748045 25
888.507202 -273.328094 7.794995 23
888.030396 -273.281769 8.829222 5
888.725769 -273.256622 7.295290 37
888.404968 -273.296936 8.328346 10
860.301453 -256.924683 4.887280 0
889.187988 -273.331085 6.804537 3
888.705017 -273.247589 7.838517 33
888.381897 -273.295380 8.896413 12
889.227539 -273.348724 7.360458 4
888.597778 -273.215302 8.370871 27
860.301453 -256.924683 4.887280 0
889.492554 -273.304016 6.845380 8
889.181152 -273.321136 7.905970 4
888.477173 -273.152191 8.927821 18
889.556824 -273.333466 7.411160 4
889.114380 -273.311157 8.455027 5
888.289429 -273.098907 9.455279 11
890.025269 -273.399719 6.903601 7
889.525208 -273.315308 7.960535 5
889.055908 -273.283813 9.026487 14
890.048096 -273.403229 7.472752 8
889.511719 -273.332794 8.520240 5
888.342346 -272.928528 9.478080 4
890.397217 -273.397369 6.951207 4
890.065857 -273.410583 8.037802 18
889.439392 -273.298248 9.096796 16
890.301575 -273.335968 7.513227 18
889.987183 -273.392456 8.594981 8
860.301453 -256.924683 4.887280 0
890.771362 -273.390045 6.996927 5
890.400330 -273.384430 8.089752 5
889.838928 -273.311096 9.169205 13
890.831665 -273.412781 7.580835 6
890.342407 -273.377045 8.656797 5
860.301453 -256.924683 4.887280 0
891.283813 -273.452179 7.051767 7
890.761597 -273.369019 8.144591 8
890.278076 -273.342957 9.246380 8
891.238525 -273.416382 7.633464 8
890.794556 -273.408081 8.727042 6
860.301453 -256.924683 4.887280 0
891.657227 -273.431854 7.098757 42
891.316589 -273.449585 8.221226 10
890.780518 -273.400482 9.332281 1
891.616821 -273.399231 7.683408 46
891.210327 -273.414154 8.793658 10
860.301453 -256.924683 4.887280 0
892.197754 -273.492645 7.153742 4
891.652527 -273.405457 8.271561 43
860.301453 -256.924683 4.887280 0
892.210754 -273.485596 7.755081 9
891.590637 -273.394348 8.856670 48
860.301453 -256.924683 4.887280 0
892.596130 -273.473877 7.199803 9
892.225647 -273.481445 8.347366 6
860.301453 -256.924683 4.887280 0
892.679321 -273.499695 7.810746 9
892.207275 -273.489624 8.945254 5
860.301453 -256.924683 4.887280 0
893.162720 -273.532349 7.258945 15
892.706116 -273.500061 8.414989 6
860.301453 -256.924683 4.887280 0
893.051147 -273.460388 7.860129 41
892.756836 -273.544189 9.027414 5
860.301453 -256.924683 4.887280 0
893.713684 -273.574341 7.312367 6
893.250977 -273.543274 8.486363 5
860.301453 -256.924683 4.887280 0
893.703918 -273.552216 7.934934 8
893.200928 -273.533966 9.096491 6
860.301453 -256.924683 4.887280 0
894.294434 -273.625122 7.370730 7
893.734741 -273.549896 8.550251 7
860.301453 -256.924683 4.887280 0
894.320312 -273.618042 8.003131 8
893.689697 -273.540863 9.167395 6
860.301453 -256.924683 4.887280 0
894.712341 -273.584808 7.416325 44
894.366943 -273.620422 8.633419 14
860.301453 -256.924683 4.887280 0
894.689697 -273.555603 8.049988 47
894.231934 -273.567169 9.246116 13
860.301453 -256.924683 4.887280 0
895.451721 -273.695526 7.485091 5
894.795715 -273.583557 8.688989 8
860.301453 -256.924683 4.887280 0
895.374756 -273.635193 8.125184 6
894.675537 -273.535889 9.313632 25
860.301453 -256.924683 4.887280 0
896.070679 -273.739197 7.543762 27
895.359131 -273.605225 8.761893 16
860.301453 -256.924683 4.887280 0
896.024353 -273.691864 8.196712 48
895.342773 -273.605438 9.405969 18
860.301453 -256.924683 4.887280 0
896.535583 -273.697998 7.590570 9
896.051270 -273.678223 8.848260 48
860.301453 -256.924683 4.887280 0
896.537659 -273.676025 8.255192 11
895.929077 -273.628845 9.488935 13
860.301453 -256.924683 4.887280 0
897.278564 -273.781799 7.658917 9
896.662598 -273.703033 8.923298 6
860.301453 -256.924683 4.887280 0
897.283752 -273.755127 8.333653 12
896.614563 -273.686890 9.585588 9
860.301453 -256.924683 4.887280 0
897.827881 -273.767670 7.711510 11
897.438293 -273.796143 9.017591 39
860.301453 -256.924683 4.887280 0
897.865662 -273.753998 8.397111 7
897.268616 -273.720978 9.673614 5
860.301453 -256.924683 4.887280 0
898.583313 -273.832733 7.779301 6
897.997559 -273.779663 9.088279 7
860.301453 -256.924683 4.887280 0
898.613098 -273.818115 8.475891 9
860.301453 -256.924683 4.887280 0
899.956116 -274.938141 11.521669 5
899.373535 -273.906616 7.848053 7
898.792603 -273.858185 9.181958 8
860.301453 -256.924683 4.887280 0
899.320312 -273.849182 8.551197 4
860.301453 -256.924683 4.887280 0
899.818420 -274.584351 11.501516 24
900.164062 -273.969543 7.918035 7
899.446289 -273.867065 9.260509 6
899.053467 -273.937256 10.649720 9
900.024658 -273.874146 8.624619 10
898.690613 -273.536194 9.871449 44
899.588684 -274.192932 11.460766 70
900.664734 -273.895172 7.965689 28
900.201233 -273.907623 9.351818 14
898.959045 -273.613647 10.638116 57
900.653015 -273.856140 8.689625 16
898.477173 -273.170502 9.846231 9
899.002502 -273.652924 11.361638 68
901.657776 -274.022156 8.050173 6
900.938599 -273.929596 9.437443 11
898.840820 -273.282349 10.619573 59
901.495544 -273.914612 8.775921 8
860.301453 -256.924683 4.887280 0
898.275635 -273.059143 11.240049 63
902.343018 -274.010376 8.110283 10
901.927734 -274.047119 9.552115 13
898.442322 -272.837585 10.561235 70
902.473022 -274.019501 8.873807 3
899.756531 -273.144867 10.016127 30
898.348389 -272.810883 11.248563 85
903.432800 -274.145752 8.200994 21
902.688416 -274.055725 9.642118 7
898.390320 -272.539093 10.554282 67
903.449768 -274.111389 8.971964 49
899.966064 -272.947266 10.045153 23
898.401367 -272.555115 11.254152 74
904.300903 -274.183533 8.273829 5
903.385925 -274.030640 9.721563 28
898.356140 -272.247986 10.546247 64
904.220886 -274.103943 9.048344 9
898.851318 -272.218933 9.901769 24
898.433594 -272.288818 11.257875 60
904.987671 -274.149750 8.332407 20
904.415283 -274.136169 9.839657 9
898.618896 -272.085785 10.582752 72
905.116394 -274.163727 9.137834 8
898.865173 -271.968140 9.902090 46
898.888306 -272.210846 11.328419 84
902.384460 -272.874359 8.137302 4
905.227661 -274.159058 9.932575 9
898.828857 -271.913208 10.612253 62
902.174438 -272.759674 8.862001 44
905.133667 -274.118378 10.717218 70
898.984436 -271.990265 11.341451 63
902.471069 -272.632507 8.149740 41
902.004395 -272.647675 9.573808 41
898.402710 -271.495728 10.547228 73
902.367188 -272.555511 8.882092 5
901.753113 -272.546600 10.278045 63
898.816101 -271.664520 11.310579 67
903.106018 -272.592377 8.201235 5
903.660217 -272.987305 9.758608 14
898.537537 -271.289124 10.565128 62
903.059570 -272.536041 8.950396 46
903.399902 -272.882568 10.488891 7
898.965820 -271.461273 11.328472 66
903.282959 -272.379761 8.218437 33
902.977722 -272.456543 9.681891 50
898.731750 -271.108124 10.590741 61
907.673035 -273.914490 9.390753 95
902.768066 -272.369843 10.405005 45
898.893494 -271.177124 11.312130 78
903.284424 -272.102753 8.223257 41
907.619873 -273.835388 10.205379 126
898.930969 -270.926208 10.616392 53
903.752808 -272.224518 9.019832 25
899.209045 -270.818420 9.942657 5
898.983826 -270.950348 11.323267 59
903.419861 -271.871033 8.234686 31
907.812500 -273.594147 10.224247 13
898.795166 -270.619385 10.592261 68
905.434631 -272.525238 9.180552 13
899.121765 -270.531952 9.928303 11
898.902588 -270.662872 11.302958 60
904.457031 -271.947968 8.317403 31
904.828125 -272.257874 9.887802 43
898.886353 -270.397614 10.603296 59
903.288574 -271.507446 8.976940 44
901.568481 -271.120880 10.243189 11
899.026550 -270.449982 11.317945 73
904.500366 -271.678009 8.324250 21
905.276306 -272.119324 9.939585 6
899.798706 -270.456665 10.733882 56
903.609680 -271.332489 9.007954 18
900.812988 -270.593933 10.144083 4
899.455017 -270.337311 11.385106 65
914.639343 -274.713318 9.113894 11
903.146973 -271.120148 9.697643 44
899.435852 -270.070801 10.675457 54
904.606445 -271.380737 9.103108 15
901.088013 -270.419891 10.174887 15
899.346069 -270.040100 11.359884 64
915.965454 -274.792450 9.218771 11
903.093872 -270.826599 9.689582 5
899.916016 -269.973328 10.741514 45
904.903870 -271.192169 9.131309 8
900.780640 -270.054657 10.132263 6
899.404663 -269.801422 11.363138 58
917.422058 -274.893921 9.335726 12
904.337891 -270.944550 9.828312 22
900.149292 -269.789276 10.771353 51
917.556091 -274.867065 10.335075 12
902.850037 -270.447662 10.398682 73
898.842163 -269.360046 11.265039 79
918.839417 -274.965271 9.445148 7
917.731201 -274.837036 11.326660 9
899.974854 -269.469421 10.740334 25
919.029907 -274.954407 10.474403 13
899.575012 -269.150696 9.969183 42
899.075378 -269.178040 11.295835 67
920.357361 -275.052185 9.564663 8
919.126648 -274.894836 11.481286 9
899.614624 -269.099640 10.683582 53
920.524109 -275.029205 10.615079 13
899.098450 -268.752014 9.904553 39
898.957214 -268.886566 11.269455 63
921.886719 -275.120422 9.687618 21
920.784729 -275.010406 11.665798 9
899.918396 -268.935486 10.723300 66
921.969177 -275.064758 10.751373 14
899.435913 -268.599701 9.946163 70
898.869873 -268.604004 11.250017 50
923.449341 -275.180389 9.806886 18
922.397644 -275.091705 11.840838 5
899.709961 -268.612701 10.687200 66
923.813782 -275.204468 10.925152 10
899.515320 -268.369537 9.951324 17
900.451416 -268.818268 11.503155 61
924.925903 -275.199219 9.922657 23
924.148987 -275.196594 12.032965 9
900.088318 -268.466522 10.737852 75
925.497986 -275.276093 11.084688 12
900.587830 -268.423401 10.086685 11
900.915283 -268.690491 11.572782 68
926.746704 -275.291718 10.066320 22
926.251587 -275.373596 12.266047 8
900.356506 -268.285370 10.771776 69
926.386047 -275.100433 11.167088 127
900.818420 -268.227234 10.113767 47
901.115112 -268.479614 11.600044 59
926.462341 -274.794312 10.041571 99
926.322998 -274.970093 12.267812 115
900.381470 -268.029816 10.770243 71
926.407654 -274.688721 11.166817 123
926.215820 -274.887024 13.381365 118
901.221741 -268.241180 11.609493 59
930.538879 -275.454315 10.359744 24
926.310913 -274.547516 12.263628 14
900.852478 -267.898071 10.834981 78
931.255310 -275.544708 11.624116 11
929.833496 -275.428253 13.841155 4
901.546753 -268.063660 11.656582 82
933.194275 -275.693695 10.568810 15
931.634705 -275.512482 12.855653 9
900.862549 -267.640076 10.830436 70
933.429810 -275.646698 11.828064 5
901.184448 -267.540161 10.148716 12
901.212280 -267.705383 11.595695 73
877.114624 -261.148010 6.196865 2
933.820068 -275.613434 13.092674 10
901.231445 -267.469635 10.879559 75
935.712097 -275.756439 12.042301 13
876.711182 -261.080444 6.996788 3
901.515625 -267.516266 11.637936 60
877.216492 -261.067535 6.204980 2
876.964722 -261.055054 6.745318 6
901.261414 -267.214203 10.879044 58
938.157043 -275.879303 12.272943 19
901.675720 -267.139557 10.203178 9
901.683838 -267.292511 11.659334 66
877.273682 -260.974915 6.209162 2
876.752441 -260.897522 6.721736 2
901.537903 -267.020294 10.914270 61
940.934082 -276.041565 12.533145 9
876.722046 -260.872589 6.996195 1
901.760681 -267.041351 11.666927 52
877.385559 -260.894653 6.217314 4
877.620056 -260.996765 6.816282 1
901.751953 -266.803711 10.940711 55
877.024109 -260.784546 6.472179 0
902.255859 -266.745300 10.270880 63
877.457703 -260.999420 7.689752 2
945.163269 -276.118286 11.496884 89
877.225769 -260.797546 6.771813 11
901.754150 -266.538544 10.936285 46
876.950928 -260.663605 6.464411 9
876.885986 -260.701691 7.013468 3
904.132690 -267.053467 12.040623 52
877.101013 -260.618439 6.195922 38
877.497803 -260.750519 6.801939 10
877.236877 -260.744110 7.356115 0
877.274719 -260.628784 6.494495 67
877.277344 -260.682831 7.062502 1
877.260010 -260.733887 7.652493 48
876.818848 -260.453308 6.173209 2
877.284485 -260.595917 6.776290 41
877.287170 -260.645325 7.361398 22
877.003540 -260.464844 6.468802 1
877.298828 -260.579315 7.063764 53
876.929382 -260.551910 7.595925 1
877.219299 -260.434265 6.204281 6
877.153564 -260.462494 6.761542 0
905.128113 -266.461182 11.414047 54
946.763672 -274.718109 13.074285 22
877.257507 -260.463135 7.057029 0
877.310852 -260.526031 7.656068 5
941.519958 -273.268036 11.213484 12
877.098328 -260.345001 6.754777 0
905.692932 -266.293915 11.492925 27
877.201538 -260.295746 6.487178 40
931.213562 -271.274872 13.961083 14
876.953247 -260.343353 7.596400 79
941.636230 -272.785675 11.221092 12
877.196350 -260.258453 6.765003 35
877.012085 -260.265808 7.317209 75
931.932007 -270.769012 11.667162 19
877.108276 -260.219116 7.036525 85
876.968689 -260.239685 7.596641 1
946.918579 -273.282654 11.633723 19
930.298828 -270.301727 12.663404 14
860.301453 -256.924683 4.887280 0
932.071777 -270.351318 11.679512 19
929.740356 -270.100800 13.762550 3
860.301453 -256.924683 4.887280 0
975.715027 -278.003143 13.880920 33
930.282227 -269.858063 12.660645 20
887.243652 -261.971252 8.800304 1
932.712585 -270.015350 11.739241 13
882.461243 -260.989563 7.718771 11
860.301453 -256.924683 4.887280 0
882.614319 -260.861023 6.625855 1
887.407898 -261.763947 7.897131 8
882.638367 -260.965363 8.130110 1
882.695557 -260.834930 7.005828 1
887.394165 -261.723083 8.347034 3
860.301453 -256.924683 4.887280 0
882.647400 -260.729797 6.628747 1
882.433472 -260.737885 7.343852 39
881.981506 -260.709869 8.032719 6
882.835266 -260.718414 7.019857 1
882.229736 -260.671326 7.686480 19
860.301453 -256.924683 4.887280 0
860.301453 -256.924683 4.887280 0
882.534302 -260.616425 7.354823 1
882.360107 -260.636810 8.086839 9
882.873413 -260.584290 7.022831 41
882.851440 -260.635468 7.765836 7
860.301453 -256.924683 4.887280 0
883.242615 -260.547577 6.676058 31
882.810486 -260.521454 7.384972 14
860.301453 -256.924683 4.887280 0
883.404663 -260.528717 7.073218 1
949.146973 -270.988220 16.225191 27
860.301453 -256.924683 4.887280 0
882.740662 -260.330963 6.637507 3
883.044922 -260.418396 7.411115 1
860.301453 -256.924683 4.887280 0
882.951599 -260.317169 7.031764 14
926.944031 -267.058289 13.389687 11
860.301453 -256.924683 4.887280 0
888.695618 -261.059845 7.103080 62
883.316223 -260.316315 7.441392 3
860.301453 -256.924683 4.887280 0
882.391846 -260.096893 6.978047 2
882.988892 -260.231812 7.781882 0
860.301453 -256.924683 4.887280 0
878.048462 -259.399506 6.272460 0
882.048950 -259.993652 7.300861 1
860.301453 -256.924683 4.887280 0
883.174438 -260.068695 7.052910 93
883.203491 -260.119324 7.809141 22
860.301453 -256.924683 4.887280 0
878.080933 -259.295288 6.275783 131
883.269104 -260.023956 7.436330 4
860.301453 -256.924683 4.887280 0
878.126526 -259.264648 6.575684 9
882.339661 -259.861755 7.698929 19
860.301453 -256.924683 4.887280 0
878.103394 -259.188812 6.279111 255
878.033813 -259.207397 6.856564 23
878.024963 -259.236816 7.455047 16
878.095215 -259.149841 6.573963 17
878.023499 -259.175262 7.148262 31
878.006592 -259.205627 7.752693 33
882.383789 -259.597809 6.614404 4
882.331543 -259.623749 7.333807 19
878.011597 -259.122406 7.453392 0
881.951782 -259.499542 6.939744 23
895.472534 -261.171661 9.375435 3
860.301453 -256.924683 4.887280 0
883.265564 -259.564819 6.684780 2
895.238953 -260.990356 8.769130 1
860.301453 -256.924683 4.887280 0
882.243103 -259.398895 6.969075 2
895.633179 -260.972748 9.396282 7
860.301453 -256.924683 4.887280 0
905.558960 -261.850128 8.434924 3
895.334778 -260.783752 8.781867 3
860.301453 -256.924683 4.887280 0
883.088135 -259.353271 7.050565 2
927.398926 -264.192871 13.455727 13
860.301453 -256.924683 4.887280 0
905.886658 -261.606262 8.463411 6
913.403625 -262.444855 10.792603 60
860.301453 -256.924683 4.887280 0
883.024536 -259.207642 7.046355 5
930.940552 -264.135925 13.910753 6
860.301453 -256.924683 4.887280 0
906.059753 -261.345520 8.480607 4
913.856140 -262.162384 10.845427 39
860.301453 -256.924683 4.887280 0
913.456604 -261.937958 9.943268 27
860.301453 -256.924683 4.887280 0
860.301453 -256.924683 4.887280 0
914.382629 -261.817505 9.139462 12
913.652344 -261.811096 10.828947 43
860.301453 -256.924683 4.887280 0
906.534973 -261.000427 9.288010 4
928.232239 -263.014191 13.573956 9
860.301453 -256.924683 4.887280 0
918.148865 -261.804596 9.441463 19
913.885559 -261.501007 10.858431 54
860.301453 -256.924683 4.887280 0
914.507690 -261.372467 10.052532 32
928.447693 -262.608673 13.605370 8
860.301453 -256.924683 4.887280 0
918.283813 -261.463928 9.458178 16
914.296448 -261.203491 10.908395 10
860.301453 -256.924683 4.887280 0
915.474731 -261.110931 10.151064 30
860.301453 -256.924683 4.887280 0
860.301453 -256.924683 4.887280 0
925.387085 -261.620453 10.026561 255
924.928711 -261.645538 12.101604 16
860.301453 -256.924683 4.887280 0
915.519531 -260.775024 10.161301 15
860.301453 -256.924683 4.887280 0
860.301453 -256.924683 4.887280 0
925.447205 -261.226929 10.039072 255
925.464172 -261.281219 12.167491 16
860.301453 -256.924683 4.887280 0
915.562317 -260.441071 10.171490 30
925.443420 -261.143280 13.240544 19
860.301453 -256.924683 4.887280 0
957.236572 -262.736450 12.565164 29
930.475708 -261.185913 12.736462 11
925.407349 -260.926941 14.360192 9
915.370544 -260.089203 10.161074 29
860.301453 -256.924683 4.887280 0
860.301453 -256.924683 4.887280 0
958.219116 -262.196014 12.658612 17
930.079407 -260.728729 12.702400 12
925.579590 -260.530457 14.393235 8
915.025879 -259.732452 10.135122 12
860.301453 -256.924683 4.887280 0
860.301453 -256.924683 4.887280 0
958.318970 -261.601532 12.680509 30
928.497437 -260.220062 12.533458 3
860.301453 -256.924683 4.887280 0
915.338318 -259.412384 10.173147 27
860.301453 -256.924683 4.887280 0
860.301453 -256.924683 4.887280 0
959.963257 -261.073639 12.826458 26
930.690796 -259.893402 12.790492 6
860.301453 -256.924683 4.887280 0
916.050537 -259.100464 10.251673 55
860.301453 -256.924683 4.887280 0
860.301453 -256.924683 4.887280 0
860.301453 -256.924683 4.887280 0
930.622009 -259.453674 12.794436 11
860.301453 -256.924683 4.887280 0
916.296265 -258.765717 10.284727 39
860.301453 -256.924683 4.887280 0
860.301453 -256.924683 4.887280 0
860.301453 -256.924683 4.887280 0
860.301453 -256.924683 4.887280 0
860.301453 -256.924683 4.887280 0
915.961487 -258.414276 10.261704 38
860.301453 -256.924683 4.887280 0
860.301453 -256.924683 4.887280 0
860.301453 -256.924683 4.887280 0
860.301453 -256.924683 4.887280 0
860.301453 -256.924683 4.887280 0
915.963501 -258.071381 10.272911 11
860.301453 -256.924683 4.887280 0
860.301453 -256.924683 4.887280 0
860.301453 -256.924683 4.887280 0
860.301453 -256.924683 4.887280 0
860.301453 -256.924683 4.887280 0
860.301453 -256.924683 4.887280 0
860.301453 -256.924683 4.887280 0
860.301453 -256.924683 4.887280 0
1041.480957 -258.921875 19.487120 44
860.301453 -256.924683 4.887280 0
860.301453 -256.924683 4.887280 0
860.301453 -256.924683 4.887280 0
860.301453 -256.924683 4.887280 0
860.301453 -256.924683 4.887280 0
1041.517578 -257.817047 19.527468 150
860.301453 -256.924683 4.887280 0
860.301453 -256.924683 4.887280 0
860.301453 -256.924683 4.887280 0
860.301453 -256.924683 4.887280 0
860.301453 -256.924683 4.887280 0
1041.572510 -256.701721 19.573111 255
860.301453 -256.924683 4.887280 0
860.301453 -256.924683 4.887280 0
860.301453 -256.924683 4.887280 0
860.301453 -256.924683 4.887280 0
860.301453 -256.924683 4.887280 0
1041.582520 -255.587280 19.614550 255
860.301453 -256.924683 4.887280 0
860.301453 -256.924683 4.887280 0
860.301453 -256.924683 4.887280 0
860.301453 -256.924683 4.887280 0
860.301453 -256.924683 4.887280 0
1041.625244 -254.479752 19.662981 69
860.301453 -256.924683 4.887280 0
860.301453 -256.924683 4.887280 0
860.301453 -256.924683 4.887280 0
860.301453 -256.924683 4.887280 0
860.301453 -256.924683 4.887280 0
860.301453 -256.924683 4.887280 0
860.301453 -256.924683 4.887280 0
860.301453 -256.924683 4.887280 0
860.301453 -256.924683 4.887280 0
860.301453 -256.924683 4.887280 0
860.301453 -256.924683 4.887280 0
1041.969360 -252.233200 19.783585 127
860.301453 -256.924683 4.887280 0
860.301453 -256.924683 4.887280 0
860.301453 -256.924683 4.887280 0
860.301453 -256.924683 4.887280 0
860.301453 -256.924683 4.887280 0
1041.967285 -251.119598 19.830957 76
860.301453 -256.924683 4.887280 0
860.301453 -256.924683 4.887280 0
860.301453 -256.924683 4.887280 0
860.301453 -256.924683 4.887280 0
860.301453 -256.924683 4.887280 0
860.301453 -256.924683 4.887280 0
860.301453 -256.924683 4.887280 0
860.301453 -256.924683 4.887280 0
860.301453 -256.924683 4.887280 0
860.301453 -256.924683 4.887280 0
860.301453 -256.924683 4.887280 0
860.301453 -256.924683 4.887280 0
860.301453 -256.924683 4.887280 0
860.301453 -256.924683 4.887280 0
860.301453 -256.924683 4.887280 0
860.301453 -256.924683 4.887280 0
860.301453 -256.924683 4.887280 0
860.301453 -256.924683 4.887280 0
860.301453 -256.924683 4.887280 0
860.301453 -256.924683 4.887280 0
979.999268 -250.501678 16.836555 158
860.301453 -256.924683 4.887280 0
860.301453 -256.924683 4.887280 0
860.301453 -256.924683 4.887280 0
860.301453 -256.924683 4.887280 0
860.301453 -256.924683 4.887280 0
980.033691 -249.751984 16.878441 162
860.301453 -256.924683 4.887280 0
860.301453 -256.924683 4.887280 0
860.301453 -256.924683 4.887280 0
860.301453 -256.924683 4.887280 0
860.301453 -256.924683 4.887280 0
980.109985 -249.003433 16.927479 153
860.301453 -256.924683 4.887280 0
860.301453 -256.924683 4.887280 0
980.121643 -248.643112 14.962639 186
860.301453 -256.924683 4.887280 0
860.301453 -256.924683 4.887280 0
860.301453 -256.924683 4.887280 0
860.301453 -256.924683 4.887280 0
860.301453 -256.924683 4.887280 0
860.301453 -256.924683 4.887280 0
860.301453 -256.924683 4.887280 0
860.301453 -256.924683 4.887280 0
860.301453 -256.924683 4.887280 0
860.301453 -256.924683 4.887280 0
860.301453 -256.924683 4.887280 0
860.301453 -256.924683 4.887280 0
860.301453 -256.924683 4.887280 0
860.301453 -256.924683 4.887280 0
860.301453 -256.924683 4.887280 0
860.301453 -256.924683 4.887280 0
860.301453 -256.924683 4.887280 0
860.301453 -256.924683 4.887280 0
860.301453 -256.924683 4.887280 0
860.301453 -256.924683 4.887280 0
860.301453 -256.924683 4.887280 0
860.301453 -256.924683 4.887280 0
860.301453 -256.924683 4.887280 0
860.301453 -256.924683 4.887280 0
860.301453 -256.924683 4.887280 0
860.301453 -256.924683 4.887280 0
860.301453 -256.924683 4.887280 0
860.301453 -256.924683 4.887280 0
860.301453 -256.924683 4.887280 0
860.301453 -256.924683 4.887280 0
860.301453 -256.924683 4.887280 0
860.301453 -256.924683 4.887280 0
860.301453 -256.924683 4.887280 0
860.301453 -256.924683 4.887280 0
860.301453 -256.924683 4.887280 0
860.301453 -256.924683 4.887280 0
860.301453 -256.924683 4.887280 0
860.301453 -256.924683 4.887280 0
860.301453 -256.924683 4.887280 0
860.301453 -256.924683 4.887280 0
860.301453 -256.924683 4.887280 0
860.301453 -256.924683 4.887280 0
860.301453 -256.924683 4.887280 0
860.301453 -256.924683 4.887280 0
860.301453 -256.924683 4.887280 0
860.301453 -256.924683 4.887280 0
860.301453 -256.924683 4.887280 0
860.301453 -256.924683 4.887280 0
860.301453 -256.924683 4.887280 0
860.301453 -256.924683 4.887280 0
860.301453 -256.924683 4.887280 0
860.301453 -256.924683 4.887280 0
860.301453 -256.924683 4.887280 0
860.301453 -256.924683 4.887280 0
860.301453 -256.924683 4.887280 0
860.301453 -256.924683 4.887280 0
860.301453 -256.924683 4.887280 0
860.301453 -256.924683 4.887280 0
860.301453 -256.924683 4.887280 0
860.301453 -256.924683 4.887280 0
860.301453 -256.924683 4.887280 0
860.301453 -256.924683 4.887280 0
860.301453 -256.924683 4.887280 0
860.301453 -256.924683 4.887280 0
860.301453 -256.924683 4.887280 0
860.301453 -256.924683 4.887280 0
860.301453 -256.924683 4.887280 0
860.301453 -256.924683 4.887280 0
860.301453 -256.924683 4.887280 0
860.301453 -256.924683 4.887280 0
860.301453 -256.924683 4.887280 0
860.301453 -256.924683 4.887280 0
860.301453 -256.924683 4.887280 0
860.301453 -256.924683 4.887280 0
860.301453 -256.924683 4.887280 0
860.301453 -256.924683 4.887280 0
860.301453 -256.924683 4.887280 0
860.301453 -256.924683 4.887280 0
860.301453 -256.924683 4.887280 0
860.301453 -256.924683 4.887280 0
860.301453 -256.924683 4.887280 0
860.301453 -256.924683 4.887280 0
860.301453 -256.924683 4.887280 0
980.595032 -237.954071 15.684091 38
860.301453 -256.924683 4.887280 0
860.301453 -256.924683 4.887280 0
860.301453 -256.924683 4.887280 0
860.301453 -256.924683 4.887280 0
860.301453 -256.924683 4.887280 0
975.383118 -238.036987 15.270583 30
1061.426392 -223.522522 29.758297 76
860.301453 -256.924683 4.887280 0
860.301453 -256.924683 4.887280 0
860.301453 -256.924683 4.887280 0
860.301453 -256.924683 4.887280 0
975.754883 -237.225113 15.359188 41
860.301453 -256.924683 4.887280 0
860.301453 -256.924683 4.887280 0
860.301453 -256.924683 4.887280 0
860.301453 -256.924683 4.887280 0
860.301453 -256.924683 4.887280 0
975.782349 -236.468658 15.420191 36
860.301453 -256.924683 4.887280 0
860.301453 -256.924683 4.887280 0
1029.602539 -226.251205 23.242207 34
860.301453 -256.924683 4.887280 0
860.301453 -256.924683 4.887280 0
