# This PCD file was generated using the MATLABÂ® pcwrite function
# from Computer Vision ToolboxÂ®.
# .PCD v.7 - Point Cloud Data file format
VERSION .7
FIELDS x y z intensity
SIZE 4 4 4 1
TYPE F F F U
COUNT 1 1 1 1
WIDTH 1477
HEIGHT 1
VIEWPOINT 0 0 0 1 0 0 0
POINTS 1477
DATA ascii
-24.780682 -15.726290 -3.603677 21
-24.924452 -15.695764 -3.616595 10
-24.460588 -15.284660 -3.541523 10
-23.793392 -14.752525 -3.437447 10
-24.637484 -15.168941 -3.552492 10
-24.856300 -15.184257 -3.576378 10
-24.287827 -14.720806 -3.487170 10
-24.046455 -14.459987 -3.445246 10
-24.182018 -14.426818 -3.457433 10
-25.323837 -14.988400 -3.613183 10
-24.977993 -14.660359 -3.556148 10
-25.893620 -15.076502 -3.678992 11
-23.752014 -13.724284 -3.368225 10
-25.046680 -14.355986 -3.544692 10
-25.601358 -14.549500 -3.615620 10
-25.911385 -14.606258 -3.652181 10
-25.859182 -14.464066 -3.638044 10
-26.188993 -14.528748 -3.677286 11
-24.935143 -13.719537 -3.494482 10
-24.895748 -13.584876 -3.482295 10
-24.962831 -13.502988 -3.484732 10
-25.016813 -13.419515 -3.485707 10
-26.565775 -14.143122 -3.695323 11
-26.449970 -13.963182 -3.672411 11
-26.517460 -13.868887 -3.674361 11
-26.650295 -13.820109 -3.686061 11
-26.699511 -13.733466 -3.686548 11
-26.775578 -13.654618 -3.690448 11
-26.840200 -13.575601 -3.693129 11
-26.883873 -13.480055 -3.692641 11
-27.088339 -13.452656 -3.713603 11
-27.201025 -13.390463 -3.722621 11
-27.169830 -13.269218 -3.712628 11
-27.298170 -13.214088 -3.723840 11
-27.256428 -13.076651 -3.711897 11
-27.407684 -13.031713 -3.726277 22
-27.487593 -12.946389 -3.730665 11
-27.671120 -12.915013 -3.749433 23
-27.663784 -12.794186 -3.742364 11
-27.834602 -12.755424 -3.759426 11
-27.921936 -12.683569 -3.765519 11
-28.087320 -12.640615 -3.781850 23
-27.083330 -12.075270 -3.640969 10
-27.858925 -12.304668 -3.739439 11
-27.950806 -12.228836 -3.746020 22
-27.993326 -12.131187 -3.746020 11
-28.037598 -12.028512 -3.746020 22
-28.302315 -12.025268 -3.775756 11
-28.385937 -11.949851 -3.781606 23
-28.478785 -11.872074 -3.788431 23
-28.509045 -11.768040 -3.786968 11
-27.631176 -11.292953 -3.665099 11
-27.696190 -11.206850 -3.668511 11
-28.282433 -11.329345 -3.740902 11
-28.463770 -11.292600 -3.759913 11
-28.682247 -11.263550 -3.783556 23
-28.706690 -11.151873 -3.781362 11
-28.823259 -11.081524 -3.791599 23
-28.833878 -10.975987 -3.788187 11
-28.864582 -10.872478 -3.787212 11
-29.082819 -10.833138 -3.810611 11
-29.129772 -10.734980 -3.811830 11
-28.980560 -10.565246 -3.787456 11
-28.729687 -10.360322 -3.749920 11
-28.775103 -10.268990 -3.751382 11
-29.179541 -10.298642 -3.799399 11
-28.956560 -10.100738 -3.765519 11
-29.017918 -10.008652 -3.768932 11
-28.250601 -9.639308 -3.665099 11
-29.196344 -9.848350 -3.783312 11
-28.871059 -9.632118 -3.737002 11
-29.057213 -9.581628 -3.756745 11
-29.050613 -9.461531 -3.751382 11
-29.077791 -9.358250 -3.750651 11
-28.694393 -9.129966 -3.697273 11
-28.690109 -9.018431 -3.692641 11
-28.537172 -8.855566 -3.668755 11
-28.611565 -8.769270 -3.674361 11
-28.811472 -8.726135 -3.696298 11
-28.803722 -8.614128 -3.691423 22
-28.654652 -8.460696 -3.668511 11
-28.687822 -8.361738 -3.668999 11
-28.716835 -8.261541 -3.668999 11
-26.637278 -7.562703 -3.399911 10
-26.754562 -7.505247 -3.411855 10
-26.809292 -7.419758 -3.415510 20
-26.828007 -7.314158 -3.414292 30
-26.958811 -7.248809 -3.427697 20
-27.012735 -7.162286 -3.431354 20
-27.004921 -7.059422 -3.427210 20
-26.982756 -6.963145 -3.421604 20
-26.668299 -6.782802 -3.378706 10
-26.730326 -6.699316 -3.383581 10
-26.738132 -6.602155 -3.381631 20
-26.875957 -6.531775 -3.396011 30
-27.070415 -6.479037 -3.417704 10
-27.233912 -6.417748 -3.435497 10
-27.391512 -6.354038 -3.452559 10
-28.841778 -6.584441 -3.632438 21
-28.630228 -6.431101 -3.602946 10
-28.573030 -6.313556 -3.592952 21
-28.620111 -6.219265 -3.596121 21
-28.717360 -6.135492 -3.605627 21
nan nan nan 0
-28.938211 -5.982270 -3.628294 10
-29.124273 -5.914808 -3.649012 21
-29.006592 -5.775034 -3.631463 21
-28.915527 -5.652033 -3.617570 21
-28.907795 -5.556299 -3.614401 21
-28.819727 -5.435117 -3.600996 10
-28.918552 -5.349308 -3.610989 21
-29.077682 -5.273830 -3.628538 21
-29.003899 -5.145490 -3.616839 10
-28.802639 -5.006136 -3.589540 10
-17.229881 -2.938964 -2.146119 5
-28.821497 -4.812724 -3.587834 10
-28.891020 -4.720724 -3.594415 10
-29.338572 -4.688759 -3.648037 10
-29.277105 -4.568960 -3.638288 21
-29.220263 -4.455684 -3.629269 21
-28.093420 -4.193567 -3.487657 10
-27.986095 -4.077737 -3.472545 10
-17.312654 -2.460865 -2.147094 5
-17.325073 -2.400975 -2.147582 5
-27.402328 -3.695188 -3.395036 10
-27.497723 -3.610386 -3.405273 10
-28.254475 -3.609456 -3.497407 10
-27.947767 -3.471163 -3.457921 10
-29.457520 -3.554316 -3.643162 21
nan nan nan 0
-27.662504 -3.146849 -3.418435 10
-27.093218 -2.986334 -3.346776 20
-27.135059 -2.895105 -3.350676 10
-27.480684 -2.835005 -3.392112 10
-28.540781 -2.848754 -3.521780 10
-28.200806 -2.715427 -3.478639 10
-27.841391 -2.572957 -3.433060 10
-27.320286 -2.428642 -3.367738 10
-27.016087 -2.306599 -3.329227 30
-27.099157 -2.218429 -3.338489 10
-27.316141 -2.145017 -3.364325 10
-27.024549 -2.027249 -3.327521 20
-27.522167 -1.972813 -3.387968 20
-26.952562 -1.837433 -3.317040 29
-27.471880 -1.776537 -3.380168 20
-27.366955 -1.673838 -3.366519 20
-27.390469 -1.579320 -3.368713 30
-17.332247 -0.938682 -2.131251 5
-29.506554 -1.489569 -3.627563 10
-29.545284 -1.388139 -3.631707 10
-29.605480 -1.287419 -3.638531 10
-28.939367 -1.157265 -3.556148 10
-28.925194 -1.060629 -3.553954 10
-29.513998 -0.979077 -3.625857 21
-29.560890 -0.877350 -3.631219 10
-29.647118 -0.776332 -3.641456 10
-29.711170 -0.674228 -3.649012 10
-29.681585 -0.569909 -3.645113 10
-29.671484 -0.466103 -3.643650 10
-29.655067 -0.362329 -3.641456 10
-29.685926 -0.259063 -3.645113 21
-29.613203 -0.155046 -3.636094 10
-29.627449 -0.056863 -3.637800 21
-29.567915 0.046443 -3.630488 21
-29.531841 0.149481 -3.626101 10
-29.650238 0.253578 -3.640725 21
-29.611462 0.356628 -3.636094 10
-29.484989 0.458055 -3.620739 10
-29.544737 0.562124 -3.628294 10
-29.354059 0.661013 -3.605139 10
-29.512444 0.762512 -3.624882 10
-29.430235 0.863177 -3.615133 10
-29.508389 0.968581 -3.625126 10
-18.594011 0.675316 -2.284563 6
-29.286686 1.166035 -3.598802 10
-29.026600 1.257185 -3.567360 10
-28.954615 1.355337 -3.559072 10
-28.598789 1.438753 -3.515931 10
-28.549986 1.536220 -3.510569 10
-28.572195 1.637467 -3.513981 10
-28.605930 1.739609 -3.518856 21
-28.567989 1.837394 -3.514956 21
-28.581547 1.933467 -3.517393 21
-28.651844 2.038725 -3.526899 10
-28.462801 2.120155 -3.504475 10
-28.542311 2.226283 -3.515200 10
-27.657875 2.254463 -3.407223 10
-28.096857 2.388983 -3.462308 10
-28.349356 2.510163 -3.494482 10
-28.275190 2.603107 -3.486439 10
-28.202696 2.695740 -3.478639 10
-28.197065 2.794568 -3.479126 10
-28.088404 2.882824 -3.466939 10
-27.967625 2.969126 -3.453290 10
-19.932240 2.182937 -2.462005 7
-28.051310 3.171259 -3.466208 10
-28.078934 3.278649 -3.471083 10
-27.854462 3.351029 -3.444759 10
-27.880024 3.452882 -3.449390 10
-27.765404 3.537143 -3.436716 10
-27.752888 3.634035 -3.436716 10
-27.873814 3.748889 -3.453290 10
-27.762907 3.827740 -3.441103 10
-27.535135 3.894321 -3.414536 10
-27.641209 4.007796 -3.429404 10
-27.503347 4.085887 -3.414048 10
-26.177961 3.982414 -3.251231 9
-27.452576 4.274424 -3.411367 10
-27.188522 4.330564 -3.380412 10
-27.153645 4.422260 -3.377975 10
-21.467232 3.573139 -2.672107 8
-26.781595 4.553808 -3.335564 10
-26.905212 4.666687 -3.352870 10
-26.892666 4.761275 -3.353357 20
-26.995049 4.876627 -3.368225 10
-27.059855 4.985942 -3.378462 10
-22.208529 4.168256 -2.774478 8
-26.325336 5.036102 -3.290960 9
-26.710917 5.206588 -3.341414 10
-26.657534 5.292843 -3.337027 10
-26.756638 5.414536 -3.351895 10
-26.696747 5.499485 -3.346776 10
-26.475319 5.540641 -3.321184 9
-26.294672 5.598692 -3.300953 9
-26.503836 5.749703 -3.329958 10
-26.002859 5.736140 -3.269511 9
-26.038948 5.829941 -3.276336 9
-26.055218 5.929174 -3.280967 9
-25.984076 6.008455 -3.274630 9
-23.713531 5.570702 -2.990918 9
-25.860399 6.170362 -3.264393 9
-25.829058 6.258251 -3.263174 9
-25.829079 6.358565 -3.266099 9
-25.490879 6.369770 -3.226126 9
-25.436903 6.445982 -3.221982 9
-24.722126 6.356777 -3.134236 9
-25.556475 6.666487 -3.242944 9
-25.533047 6.755662 -3.242944 9
-25.179541 6.756257 -3.201020 9
-25.333941 6.892581 -3.223688 28
-25.402803 7.001868 -3.235388 28
-25.393505 7.094767 -3.237338 28
nan nan nan 0
-25.288015 7.256008 -3.230269 28
-25.324152 7.366937 -3.238312 19
-25.465847 7.504677 -3.259762 29
-25.494659 7.609984 -3.266830 29
-25.224716 7.625412 -3.235631 28
-25.043636 7.661394 -3.215645 28
-24.904865 7.714108 -3.201264 28
-24.873997 7.799814 -3.200777 28
-24.854189 7.888989 -3.201752 28
-24.767906 7.956883 -3.194196 28
-24.696560 8.029181 -3.188590 28
-23.496037 7.734190 -3.037228 9
-24.629059 8.202552 -3.187371 28
-7.876993 2.652427 -1.020534 11
-7.841379 2.670949 -1.017122 22
-7.800570 2.685952 -1.012978 24
-7.785522 2.711208 -1.012247 27
-7.775533 2.739724 -1.012247 30
-7.765924 2.766847 -1.012247 33
-7.780987 2.801325 -1.015416 27
-7.797275 2.837976 -1.018828 30
-24.038546 8.849232 -3.145204 18
-22.721922 8.454734 -2.976781 8
-22.797819 8.569144 -2.990430 9
-22.344667 8.487944 -2.934858 8
-23.786377 9.130743 -3.128386 28
-23.672922 9.182137 -3.117662 28
-22.498528 8.817074 -2.967031 8
-22.478685 8.899945 -2.968494 8
-22.107744 8.833516 -2.923158 8
-22.150406 8.940358 -2.932908 8
-22.218836 9.067351 -2.946557 8
-22.152185 9.130467 -2.941926 8
-22.011580 9.153525 -2.927058 8
-21.983152 9.231848 -2.927546 8
-21.872206 9.275208 -2.917065 17
nan nan nan 0
-22.670601 9.801056 -3.032597 27
-22.483429 9.813423 -3.012123 27
-21.509872 9.478024 -2.886110 8
-19.372702 8.617192 -2.603373 31
-19.335264 8.681497 -2.602398 31
-22.190533 10.056736 -2.991405 27
-22.021708 10.073026 -2.973368 8
-19.679451 9.084852 -2.661383 40
-21.814068 10.158164 -2.954601 8
-21.844950 10.265491 -2.963619 26
-21.920191 10.394410 -2.978731 26
-21.833633 10.446878 -2.971906 26
-21.736254 10.493681 -2.963619 35
-21.699490 10.569496 -2.963619 26
-21.293631 10.468537 -2.913409 26
-21.162701 10.496059 -2.900491 25
-21.346155 10.675400 -2.930470 26
-20.993292 10.590681 -2.887085 17
-20.749197 10.558569 -2.858567 17
-21.130764 10.845768 -2.916333 26
-19.992752 10.349977 -2.764241 8
-19.967056 10.425219 -2.765703 8
-19.930548 10.494849 -2.765703 8
-19.860476 10.546671 -2.761072 8
-19.848143 10.624658 -2.764241 8
-20.803150 11.229451 -2.902684 25
-20.734180 11.285872 -2.898541 34
-20.638969 11.327621 -2.890741 34
-20.529831 11.361144 -2.880991 34
-20.491783 11.433699 -2.881235 34
-20.417143 11.485699 -2.876360 25
-20.306128 11.516752 -2.866367 34
-20.298546 11.606280 -2.870998 34
-20.168480 11.625509 -2.858324 34
-20.115759 11.688864 -2.856618 34
-19.977205 11.701817 -2.842724 34
-19.948198 11.778550 -2.844431 34
-19.842138 11.809536 -2.835169 34
-19.850166 11.908326 -2.842237 25
-19.801682 11.973441 -2.841262 34
-19.758472 12.036980 -2.840775 25
-19.614843 12.043541 -2.826150 25
-19.609818 12.134922 -2.831513 25
-19.569021 12.204356 -2.831756 34
-19.447311 12.222938 -2.820301 34
-19.441418 12.314121 -2.825663 34
-19.341427 12.345592 -2.817376 33
-18.613703 11.972733 -2.717443 24
-19.214787 12.454406 -2.811526 25
-19.156240 12.511628 -2.809332 33
-19.094204 12.566421 -2.806651 33
-19.025414 12.616536 -2.802995 33
-18.949892 12.661920 -2.798364 25
-18.908869 12.730213 -2.798852 25
-18.797546 12.746052 -2.788615 33
-18.713604 12.784711 -2.782765 33
-18.671106 12.846694 -2.782765 25
-18.600044 12.893701 -2.778865 33
-18.539640 12.952696 -2.776915 33
-18.549503 13.056184 -2.785202 33
-18.508682 13.124287 -2.785933 33
-18.472445 13.195743 -2.787396 33
-18.435942 13.267096 -2.788858 33
-18.108255 13.127477 -2.746204 24
-18.216055 13.293123 -2.768872 33
-18.225519 13.397783 -2.777403 33
-18.091009 13.406204 -2.764728 33
-17.939116 13.390895 -2.748641 33
-17.804995 13.387823 -2.735236 33
-17.721760 13.422321 -2.729630 32
-17.652664 13.457476 -2.725486 32
-17.558357 13.482731 -2.718174 32
-17.511185 13.543944 -2.718174 32
-17.463797 13.604992 -2.718174 32
-17.435671 13.686072 -2.721586 32
-17.381567 13.741924 -2.720612 32
-17.359201 13.818027 -2.724268 32
-17.346478 13.907102 -2.729874 32
-17.281496 13.959358 -2.727680 24
-17.231119 14.018348 -2.727436 16
-17.218321 14.103089 -2.732799 16
-17.214933 14.200990 -2.740111 16
-17.231882 14.311271 -2.750348 16
-17.218361 14.401905 -2.756197 16
-17.212025 14.498999 -2.763266 16
-17.229424 14.616784 -2.774234 16
-17.223570 14.715526 -2.781546 16
-17.062254 14.681039 -2.763753 16
-16.940390 14.679413 -2.752298 8
-16.793333 14.654912 -2.736698 8
-16.669010 14.649236 -2.724755 8
-16.579119 14.673130 -2.718418 8
-16.491829 14.693698 -2.712081 8
-16.381348 14.698136 -2.702331 8
-16.303799 14.736783 -2.698431 8
-16.187662 14.734815 -2.687707 8
-16.103588 14.756223 -2.681857 8
-16.016966 14.780041 -2.676007 8
-15.915838 14.789914 -2.667720 8
-15.809039 14.793836 -2.658458 8
-15.733576 14.816214 -2.653583 8
-15.638545 14.830070 -2.646271 7
-15.538163 14.843398 -2.638472 7
-15.431889 14.845254 -2.629210 7
-15.336946 14.852152 -2.621410 7
-15.222470 14.844622 -2.610685 7
-15.119816 14.853012 -2.602398 7
-15.028359 14.866615 -2.595573 7
-14.908864 14.851741 -2.583874 7
-14.823299 14.869948 -2.578024 7
-14.703867 14.843106 -2.565350 7
-14.601852 14.843394 -2.556575 7
-14.503147 14.856740 -2.549263 7
-14.362766 14.816059 -2.533664 7
-14.258648 14.811757 -2.524402 7
-14.165704 14.818396 -2.517090 7
-14.050875 14.796192 -2.505390 7
-13.947392 14.790266 -2.496128 7
-13.841266 14.775592 -2.485891 7
-13.749041 14.780218 -2.478579 7
-13.665045 14.793115 -2.472729 7
-13.571723 14.795381 -2.465173 7
-13.497265 14.817718 -2.461030 7
-13.402859 14.817624 -2.453230 7
-13.295406 14.807569 -2.443480 7
-13.217213 14.824259 -2.438606 7
-13.141695 14.843554 -2.434218 7
-13.053105 14.847591 -2.427394 7
-12.971137 14.848157 -2.420813 7
-12.876306 14.843858 -2.412769 7
-12.803680 14.864653 -2.408870 7
-12.728487 14.882105 -2.404482 7
-12.637914 14.881049 -2.397170 7
-12.550063 14.882579 -2.390345 7
-12.454705 14.874553 -2.382058 7
-8.059916 9.694448 -1.547984 3
-7.986858 9.675060 -1.540429 10
-7.959326 9.710559 -1.541647 21
-7.907842 9.716726 -1.538235 39
-7.866387 9.735009 -1.536773 36
-7.840271 9.768785 -1.537991 10
-7.832100 9.828696 -1.543110 10
-11.810556 14.927958 -2.337210 6
-11.716681 14.916020 -2.328923 6
-11.634033 14.917686 -2.322830 6
-11.553934 14.922109 -2.317224 6
-11.479996 14.934023 -2.312837 6
-11.406121 14.945597 -2.308449 6
-11.320312 14.941021 -2.301625 6
-11.238259 14.940782 -2.295531 6
-11.163707 14.944569 -2.290413 6
-11.090184 14.954748 -2.286025 6
-10.999075 14.940617 -2.277982 6
-10.900007 14.914811 -2.268233 6
-10.808515 14.893033 -2.259458 6
-10.734413 14.900073 -2.254827 6
-10.645092 14.890873 -2.247515 6
-10.560878 14.882613 -2.240690 6
-10.473436 14.869070 -2.233134 6
-10.391892 14.863243 -2.226797 6
-10.313109 14.855227 -2.220460 6
-10.234162 14.851903 -2.214610 6
-10.173287 14.874432 -2.212660 6
-10.087866 14.860572 -2.205348 6
-10.007463 14.847856 -2.198523 6
-9.939019 14.857945 -2.194867 6
-9.869517 14.866096 -2.190967 6
-9.779342 14.842437 -2.182436 6
-9.698142 14.831621 -2.175855 6
-9.622543 14.828749 -2.170493 6
-9.556753 14.840548 -2.167325 5
-9.482433 14.838696 -2.162206 5
-9.421610 14.863292 -2.160744 5
-9.326338 14.827191 -2.150750 5
-9.257146 14.826043 -2.146119 5
-9.195924 14.843081 -2.143926 5
-9.134181 14.864850 -2.142220 5
-9.070874 14.877997 -2.139539 5
-8.986053 14.843586 -2.130520 5
-8.914761 14.842532 -2.125889 5
-8.849576 14.863011 -2.123939 5
-8.781496 14.866458 -2.120039 5
-8.729725 14.885413 -2.118821 5
-8.653756 14.874615 -2.112971 5
-8.590863 14.885819 -2.110290 5
-8.526038 14.893314 -2.107121 5
-8.471047 14.917813 -2.106390 5
-8.403339 14.919617 -2.102490 5
-8.345404 14.938460 -2.101028 11
-8.275878 14.936249 -2.096640 5
-8.210317 14.940686 -2.093228 11
-8.160009 14.972741 -2.093715 5
-8.102757 14.985753 -2.091766 5
-8.041019 14.996449 -2.089328 11
-7.983035 15.013907 -2.087866 5
-7.922234 15.025885 -2.085672 11
-7.874344 15.062237 -2.086891 5
-7.814407 15.075535 -2.084941 11
-7.741784 15.063871 -2.079579 5
-7.674731 15.062507 -2.075679 5
-7.627376 15.086541 -2.075679 5
-7.560425 15.084685 -2.071779 5
-7.499798 15.101621 -2.070317 5
-7.428616 15.090315 -2.065198 5
-7.363739 15.084533 -2.061054 5
-7.304119 15.095852 -2.059104 5
-7.238501 15.094410 -2.055449 5
-7.186629 15.121372 -2.055692 5
-7.115191 15.106860 -2.050330 5
-7.050657 15.106424 -2.046918 5
-6.994552 15.123734 -2.045943 5
-6.936752 15.137232 -2.044480 5
-6.876306 15.151706 -2.043018 5
-6.815238 15.157512 -2.040581 5
-6.755235 15.158272 -2.037656 5
-6.696672 15.169045 -2.035949 10
-6.641822 15.195309 -2.036193 5
-6.578490 15.194717 -2.033025 10
-6.517888 15.192734 -2.029856 5
-6.450846 15.182507 -2.025469 5
-6.400892 15.212248 -2.026443 5
-6.343930 15.225338 -2.025225 10
-6.279756 15.228302 -2.022544 5
-6.217560 15.228075 -2.019619 5
-6.162238 15.229133 -2.017181 5
-6.103877 15.237650 -2.015475 10
-6.038740 15.244367 -2.013282 5
-5.981146 15.254264 -2.011819 10
-5.921696 15.243370 -2.007919 5
-5.865605 15.256537 -2.006944 5
-5.804538 15.256516 -2.004263 10
-5.749152 15.271108 -2.003532 10
-5.685420 15.263177 -1.999876 10
-5.624559 15.262441 -1.997195 5
-5.558384 15.254978 -1.993539 10
-5.504431 15.272418 -1.993295 10
-5.456419 15.298068 -1.994270 5
-5.396385 15.298299 -1.991833 5
-5.337724 15.302049 -1.989883 5
-5.276505 15.298068 -1.986958 5
-5.220396 15.317307 -1.986958 5
-5.160563 15.316624 -1.984521 5
-5.108654 15.321462 -1.983058 5
-5.043952 15.305264 -1.978671 5
-4.984139 15.312322 -1.977208 5
-4.931870 15.333406 -1.977696 5
-4.872315 15.331608 -1.975258 5
-4.814000 15.333374 -1.973309 4
-4.759274 15.346292 -1.972821 4
-4.699866 15.343830 -1.970384 4
-4.648954 15.359332 -1.970384 4
-4.588493 15.352642 -1.967459 9
-4.530807 15.344928 -1.964534 4
-4.478886 15.366366 -1.965265 9
-4.420277 15.364739 -1.963072 4
-4.358494 15.351427 -1.959416 9
-4.300050 15.349348 -1.957222 4
-4.243275 15.352783 -1.955759 4
-4.182352 15.340688 -1.952347 4
-4.126703 15.347528 -1.951372 4
-4.068028 15.342649 -1.948935 4
-4.013440 15.352917 -1.948447 4
-3.962214 15.353915 -1.946985 4
-3.903698 15.348414 -1.944547 9
-3.843562 15.347213 -1.942598 4
-3.789019 15.356681 -1.942110 4
-3.736325 15.373672 -1.942598 4
-3.673393 15.348011 -1.937723 4
-3.613359 15.321466 -1.932848 9
-3.556274 15.318515 -1.930898 4
-3.506345 15.334093 -1.931386 4
-3.447557 15.323002 -1.928461 4
-3.394917 15.338817 -1.928948 4
-3.333750 15.315660 -1.924561 4
-3.275106 15.316129 -1.923098 4
-3.220802 15.323584 -1.922611 4
-3.166501 15.330841 -1.922123 4
-3.112166 15.337914 -1.921636 4
-3.055854 15.320894 -1.918224 4
-2.999299 15.315884 -1.916274 4
-2.943573 15.314563 -1.914811 4
-2.891205 15.330595 -1.915542 9
-2.837094 15.322533 -1.913349 4
-2.780048 15.312810 -1.910911 4
-2.723206 15.318988 -1.910424 4
-2.673807 15.351869 -1.913349 4
-2.620207 15.344997 -1.911399 4
-2.563357 15.334470 -1.908962 4
-2.509279 15.323298 -1.906524 4
-2.452012 15.308441 -1.903599 4
-2.398563 15.316906 -1.903599 4
-2.347488 15.340883 -1.905549 4
-2.297186 15.352510 -1.906037 4
-2.241290 15.344722 -1.904087 4
-2.186708 15.364625 -1.905549 4
-2.131974 15.364300 -1.904574 4
-2.081008 15.371286 -1.904574 9
-2.028381 15.386327 -1.905549 4
-1.972138 15.373624 -1.903112 4
-1.920907 15.400114 -1.905549 4
-1.867447 15.386691 -1.903112 4
-1.815108 15.404947 -1.904574 4
-1.758645 15.411496 -1.904574 4
-1.703961 15.409648 -1.903599 4
-1.655113 15.410977 -1.903112 4
-1.601312 15.416661 -1.903112 4
-1.543681 15.438498 -1.905062 9
-1.489213 15.437864 -1.904330 4
-1.440886 15.444445 -1.904574 4
-1.384484 15.421698 -1.901162 4
-1.330509 15.456337 -1.904818 9
-1.276388 15.458909 -1.904574 4
-1.222094 15.459312 -1.904087 4
-1.167678 15.457546 -1.903356 9
-1.117824 15.443317 -1.901162 4
-1.064732 15.459008 -1.902624 4
-1.011018 15.466592 -1.903112 4
-0.956782 15.466064 -1.902624 4
-0.900472 15.429675 -1.897750 4
-0.847915 15.456511 -1.900674 4
-0.790646 15.447618 -1.899212 9
-0.737762 15.472095 -1.901893 9
-0.686182 15.468508 -1.901162 4
-0.631700 15.458908 -1.899699 4
-0.577293 15.449118 -1.898237 4
-0.523768 15.462941 -1.899699 4
-0.469537 15.456739 -1.898725 4
-0.415591 15.458284 -1.898725 4
-0.364049 15.447670 -1.897262 4
-0.310113 15.448847 -1.897262 4
-0.256155 15.447850 -1.897018 9
-0.202052 15.434757 -1.895312 4
-0.148390 15.459188 -1.898237 4
-0.094292 15.435791 -1.895312 4
-0.040396 15.432055 -1.894825 4
0.006439 12.296719 -1.947609 12
0.070676 12.270838 -1.943542 12
0.113618 12.282368 -1.945419 12
0.156541 12.285846 -1.946045 12
0.199169 12.269424 -1.943542 8
0.241958 12.266680 -1.943229 12
0.284775 12.265760 -1.943229 12
0.327589 12.264692 -1.943229 12
0.370518 12.267422 -1.943855 12
0.413070 12.258157 -1.942603 12
0.455563 12.248745 -1.941352 12
0.496339 12.251114 -1.941978 12
0.539448 12.257200 -1.943229 12
0.582230 12.255243 -1.943229 12
0.623898 12.231435 -1.939788 12
0.666375 12.225239 -1.939162 12
0.709503 12.230724 -1.940413 12
0.750904 12.242106 -1.942603 16
0.793249 12.233498 -1.941665 12
0.837025 12.246420 -1.944168 12
0.879909 12.245395 -1.944481 12
0.925023 12.273765 -1.949487 16
0.970191 12.299999 -1.954180 16
1.019167 12.343611 -1.961689 16
1.069703 12.426573 -1.975455 16
1.119067 12.489658 -1.986092 16
1.168701 12.550583 -1.996417 16
1.209935 12.542706 -1.995791 16
1.229928 12.300570 -1.957934 16
1.236396 11.964355 -1.905059 16
1.272904 11.910860 -1.897237 16
1.313728 11.880591 -1.893170 16
1.349816 11.828831 -1.885661 20
1.389035 11.824289 -1.885661 24
1.428165 11.801718 -1.882845 32
1.464367 11.773395 -1.879091 36
1.503199 11.750576 -1.876275 28
1.544194 11.729321 -1.873772 28
1.583010 11.708198 -1.871269 31
1.616404 11.663751 -1.865012 27
1.655163 11.644347 -1.862822 19
1.697545 11.636247 -1.862509 15
1.738737 11.634159 -1.863135 15
1.774257 11.594823 -1.857816 19
1.813498 11.580753 -1.856565 15
1.850331 11.564923 -1.855000 15
1.885267 11.525252 -1.849681 23
1.923858 11.508860 -1.848117 23
1.960030 11.478708 -1.844363 34
1.995675 11.446498 -1.840295 31
2.032504 11.421958 -1.837479 34
2.063187 11.364260 -1.829345 38
2.104282 11.364758 -1.830596 34
2.143939 11.357345 -1.830596 34
2.183198 11.347852 -1.830284 31
2.224316 11.347915 -1.831535 31
2.267781 11.359453 -1.834664 27
2.303079 11.340256 -1.832786 23
2.337851 11.308933 -1.829032 23
2.376499 11.296839 -1.828406 23
2.416745 11.292336 -1.829032 19
2.455728 11.281902 -1.828719 15
2.491252 11.255903 -1.825903 19
2.528131 11.245653 -1.825590 19
2.565610 11.229055 -1.824339 19
2.599430 11.196941 -1.820585 27
2.633058 11.164728 -1.816830 34
2.673961 11.155002 -1.816830 38
2.706810 11.120649 -1.812763 34
2.750776 11.140379 -1.817456 31
2.781002 11.096219 -1.811824 27
2.811927 11.055812 -1.806818 31
2.850502 11.045929 -1.806818 31
2.886040 11.024446 -1.804941 34
2.921464 11.002851 -1.803064 31
2.954477 10.987894 -1.802125 27
2.990736 10.969891 -1.800874 31
3.031641 10.968905 -1.802438 27
3.062984 10.933527 -1.798371 31
3.091419 10.888565 -1.792739 26
3.114662 10.826450 -1.784292 33
3.157088 10.824444 -1.785856 37
3.198770 10.826619 -1.788046 33
3.238809 10.822957 -1.789298 30
3.278860 10.819147 -1.790549 22
3.312833 10.808793 -1.790549 22
3.348201 10.789617 -1.789298 22
3.377654 10.745236 -1.783979 30
3.407355 10.708910 -1.779912 30
3.448900 10.716355 -1.783040 26
3.481392 10.689225 -1.780537 30
3.513737 10.661998 -1.778034 26
3.539061 10.614063 -1.772090 30
3.578615 10.609133 -1.773341 26
3.611799 10.585360 -1.771464 18
3.644215 10.559615 -1.769274 15
3.673242 10.524449 -1.765519 18
3.708779 10.514073 -1.765832 18
3.742803 10.493622 -1.764581 22
3.777399 10.474917 -1.763642 26
3.813264 10.459812 -1.763330 18
3.855217 10.461267 -1.765832 18
3.891021 10.445894 -1.765519 18
3.926764 10.430400 -1.765207 18
3.956125 10.398168 -1.762078 22
3.982790 10.364708 -1.758636 26
4.028955 10.376522 -1.763017 18
4.060823 10.351362 -1.761139 15
4.101298 10.348142 -1.763017 15
4.127919 10.320533 -1.760514 15
4.158000 10.291409 -1.758011 18
4.189420 10.265860 -1.756134 22
4.219959 10.238389 -1.753943 22
4.255178 10.217381 -1.753005 22
4.283925 10.186078 -1.750189 22
4.307418 10.152565 -1.746747 26
4.350609 10.155626 -1.749876 22
4.388385 10.145817 -1.750815 22
4.420612 10.123196 -1.749563 18
4.454328 10.104088 -1.748937 18
4.482342 10.072235 -1.746122 22
4.517474 10.056528 -1.746122 18
4.552550 10.040698 -1.746122 18
4.585000 10.023749 -1.745809 18
4.616649 10.000509 -1.744557 15
4.653271 9.983521 -1.744557 15
4.679685 9.949343 -1.741429 18
4.698258 9.903429 -1.736110 15
4.737916 9.897659 -1.737987 15
4.756973 9.849043 -1.732355 26
4.793920 9.837706 -1.733294 18
4.840432 9.845730 -1.737674 15
4.862483 9.803999 -1.733294 22
4.885184 9.763999 -1.729227 26
4.922798 9.753941 -1.730478 26
4.944460 9.720821 -1.727350 26
4.978363 9.703503 -1.727350 30
5.015835 9.693083 -1.728601 33
5.049639 9.675515 -1.728601 30
5.070661 9.637739 -1.724847 30
5.087606 9.588572 -1.719215 26
5.128115 9.575930 -1.720466 26
5.170897 9.575353 -1.723595 30
5.194345 9.546915 -1.721405 33
5.238090 9.547776 -1.724847 26
5.255131 9.500048 -1.719528 30
5.300768 9.504073 -1.723595 26
5.331007 9.480348 -1.722656 22
5.353351 9.442779 -1.719215 22
5.375177 9.400801 -1.715148 25
5.394149 9.358021 -1.710768 25
5.431456 9.354694 -1.713270 29
5.475053 9.354432 -1.716712 21
5.502273 9.322394 -1.714522 21
5.524681 9.286154 -1.711393 25
5.547320 9.254228 -1.708890 25
5.563244 9.207756 -1.703884 29
5.608708 9.210214 -1.707952 21
5.644958 9.197313 -1.709203 21
5.675988 9.175874 -1.708890 21
5.687084 9.122478 -1.702633 25
5.700509 9.069796 -1.696688 29
5.735303 9.054849 -1.697627 32
5.769549 9.042441 -1.698879 32
5.809625 9.035539 -1.701381 29
5.836335 9.011250 -1.700443 29
5.858037 8.975933 -1.697627 29
5.879565 8.940577 -1.694811 32
5.915102 8.926585 -1.696063 36
5.939003 8.891704 -1.693560 29
5.970004 8.870918 -1.693560 25
5.999389 8.851072 -1.693560 29
6.031362 8.831708 -1.693873 21
6.047597 8.789445 -1.689805 25
6.048981 8.726073 -1.681671 29
6.063568 8.682230 -1.677290 25
6.083609 8.646472 -1.674475 29
6.096619 8.601009 -1.669782 32
6.117422 8.566815 -1.667279 32
6.117295 8.503717 -1.659144 36
6.171284 8.515902 -1.665714 29
6.208804 8.508156 -1.668217 29
6.237295 8.484839 -1.667904 32
6.264223 8.462522 -1.667592 29
6.296086 8.443771 -1.668217 29
6.301795 8.390152 -1.661960 29
6.335812 8.374406 -1.663211 32
6.375517 8.369063 -1.666340 29
6.392667 8.331085 -1.663211 29
6.393187 8.265851 -1.655077 32
6.423215 8.245044 -1.655390 36
6.460492 8.233451 -1.657580 29
6.484293 8.204649 -1.656328 29
6.517815 8.188148 -1.657580 29
6.542649 8.160722 -1.656641 25
6.547168 8.113993 -1.651322 29
6.585417 8.103354 -1.653825 29
6.608658 8.074202 -1.652574 29
6.626750 8.038891 -1.650071 29
6.654771 8.015710 -1.650071 21
6.673841 7.981823 -1.647881 25
6.708141 7.963353 -1.649132 25
6.738454 7.942900 -1.649758 25
6.767421 7.920833 -1.650071 29
6.780858 7.880692 -1.646629 25
6.805582 7.859349 -1.646629 29
6.836869 7.840011 -1.647568 29
6.873380 7.823805 -1.649445 29
6.891487 7.789409 -1.647255 29
6.912065 7.757931 -1.645691 25
6.919314 7.711701 -1.640998 29
6.960739 7.706305 -1.644752 25
6.995572 7.690728 -1.646629 29
7.033048 7.677915 -1.649132 29
7.043734 7.635894 -1.645378 29
7.064967 7.605472 -1.644126 25
7.083375 7.572108 -1.642249 21
7.109765 7.547336 -1.642249 29
7.133347 7.519607 -1.641623 29
7.144601 7.481625 -1.638495 24
7.152874 7.438130 -1.634428 28
7.215823 7.448752 -1.642562 25
7.223848 7.405137 -1.638495 24
7.242827 7.375504 -1.637243 24
7.261584 7.343153 -1.635679 28
7.278810 7.309362 -1.633802 28
7.300083 7.279726 -1.632863 28
7.322642 7.251420 -1.632237 31
7.369037 7.246590 -1.636930 28
7.373087 7.200122 -1.632237 31
7.410939 7.186718 -1.635053 28
7.441672 7.166285 -1.636305 31
7.475208 7.148457 -1.638182 31
7.504600 7.129070 -1.639433 28
7.526566 7.100121 -1.638808 28
7.546978 7.069754 -1.637869 28
7.571611 7.043366 -1.637869 24
7.625172 7.043701 -1.644126 25
7.658446 7.025053 -1.646004 25
7.671719 6.992974 -1.644126 25
7.707799 6.976758 -1.646629 18
7.729166 6.947169 -1.646004 21
7.760738 6.926724 -1.647568 29
7.802065 6.909970 -1.650697 29
7.836522 6.891826 -1.652887 29
7.866482 6.869627 -1.654138 25
7.893399 6.844713 -1.654764 29
7.922040 6.823658 -1.656015 29
7.948813 6.798530 -1.656641 25
7.968304 6.769576 -1.656015 25
7.993395 6.742994 -1.656328 21
8.026311 6.725329 -1.658518 25
8.061885 6.707380 -1.661021 25
8.101292 6.687694 -1.663837 18
8.123058 6.658122 -1.663524 21
8.146999 6.635064 -1.664150 21
8.173182 6.609069 -1.664776 25
8.205052 6.585251 -1.666340 21
8.238804 6.565187 -1.668530 18
8.266318 6.540066 -1.669469 18
8.282883 6.506289 -1.668217 21
8.301725 6.479022 -1.667904 25
8.327414 6.452423 -1.668530 21
8.346755 6.420907 -1.667904 21
8.359698 6.384538 -1.666027 29
8.385080 6.357705 -1.666653 25
8.411958 6.331961 -1.667592 21
8.454579 6.317932 -1.671659 18
8.486100 6.295443 -1.673536 18
8.493710 6.255239 -1.670720 18
8.491572 6.208066 -1.666027 25
8.506795 6.173746 -1.664776 14
nan nan nan 0
7.285151 5.209888 -1.418548 9
7.303293 5.184426 -1.418548 13
7.326189 5.162314 -1.419487 13
7.361970 5.149164 -1.422928 6
8.614285 5.984854 -1.661334 18
8.636749 5.955869 -1.661647 21
8.641186 5.914527 -1.658518 29
8.634001 5.865458 -1.653200 29
5.015700 3.380586 -0.958005 6
5.011051 3.352074 -0.954876 31
5.008395 3.327569 -0.952373 29
5.003488 3.299192 -0.949244 42
5.019426 3.282119 -0.949870 44
5.054051 3.279631 -0.954250 38
8.739857 5.630295 -1.646629 29
8.749471 5.593369 -1.644752 7
7.205180 4.572547 -1.351594 12
7.196025 4.531578 -1.346901 12
7.206773 4.503292 -1.345962 12
7.224127 4.479148 -1.346275 12
7.250717 4.462416 -1.348465 12
7.264564 4.436048 -1.348152 12
7.281694 4.411687 -1.348465 12
7.308901 4.393367 -1.350655 12
7.340394 4.379226 -1.353784 12
7.372634 4.363638 -1.356913 12
7.406559 4.348877 -1.360354 12
7.449005 4.338906 -1.365360 3
8.825569 5.099554 -1.614404 14
8.922153 5.113901 -1.628796 14
9.343501 5.312161 -1.702320 29
9.348221 5.271751 -1.699817 25
9.338982 5.223659 -1.694811 29
9.265608 5.140239 -1.678229 18
9.186575 5.054538 -1.660708 14
8.829615 4.818061 -1.593129 10
8.796072 4.763957 -1.584368 14
8.772623 4.711728 -1.577173 14
8.779482 4.677966 -1.575608 14
8.785278 4.641753 -1.573731 14
8.804926 4.612893 -1.574357 14
8.810457 4.576666 -1.572479 14
8.825416 4.543439 -1.572167 14
8.828905 4.506318 -1.569976 14
8.829701 4.469878 -1.567474 14
8.824064 4.428398 -1.563719 14
8.827088 4.391409 -1.561529 16
8.838820 4.358823 -1.560903 13
8.855000 4.330358 -1.561216 13
8.871839 4.300282 -1.561529 13
8.895699 4.273565 -1.563093 14
8.903428 4.239090 -1.561842 13
8.920692 4.207271 -1.562155 14
8.928165 4.172762 -1.560903 13
9.347022 4.330813 -1.631612 28
9.338744 4.287447 -1.627544 35
9.258354 4.211471 -1.610962 31
9.283804 4.183998 -1.612839 35
9.476186 4.232948 -1.643813 32
8.995946 3.980820 -1.558087 13
8.994192 3.940687 -1.555272 6
8.995209 3.903763 -1.553082 3
9.833787 4.228994 -1.695437 21
9.748531 4.152070 -1.678229 14
9.631920 4.062740 -1.655703 32
9.212226 3.847891 -1.581240 24
9.196394 3.803631 -1.576234 31
9.242520 3.784980 -1.581866 24
9.246522 3.748985 -1.580301 28
9.263219 3.718158 -1.580927 35
9.027060 3.590478 -1.538690 10
8.958663 3.527104 -1.524923 13
8.927355 3.477040 -1.517415 16
8.941280 3.446567 -1.517727 13
9.017254 3.441550 -1.528678 13
9.363696 3.536378 -1.585307 38
9.219300 3.443287 -1.558713 16
8.973707 3.315914 -1.515224 13
8.997641 3.290887 -1.517415 16
9.094519 3.290375 -1.531806 16
9.379352 3.356447 -1.577798 38
9.443151 3.342140 -1.586558 35
9.332998 3.268370 -1.566222 28
9.510481 3.293298 -1.594067 49
9.441557 3.232567 -1.580614 35
9.523885 3.223656 -1.592503 38
9.675577 3.237402 -1.615968 28
9.664313 3.196166 -1.612214 28
nan nan nan 0
8.993267 2.903012 -1.496765 13
9.006105 2.875946 -1.497391 13
9.673553 3.051916 -1.606582 28
9.652611 3.006453 -1.601263 31
9.878285 3.038957 -1.636930 28
10.101874 3.071110 -1.672285 18
9.620622 2.888155 -1.590939 14
9.542125 2.826505 -1.576234 35
9.733946 2.846406 -1.606269 31
9.859097 2.847547 -1.625354 24
9.074901 2.586766 -1.494575 10
9.079625 2.555588 -1.493949 13
9.398737 2.610034 -1.544947 37
9.539248 2.613222 -1.566535 35
9.502543 2.567542 -1.559026 30
9.520992 2.536899 -1.560591 23
9.736128 2.557858 -1.594380 42
9.505962 2.461949 -1.555272 27
9.529809 2.432661 -1.557775 33
9.478858 2.384442 -1.548076 27
9.161170 2.270554 -1.494888 13
9.144094 2.232472 -1.490821 20
9.126862 2.194535 -1.486753 16
9.126401 2.162436 -1.485502 16
9.133894 2.130564 -1.485502 16
9.139349 2.098227 -1.485189 16
9.165886 2.070665 -1.488318 16
9.171129 2.038228 -1.488005 13
9.589239 2.096052 -1.554646 43
9.731686 2.091622 -1.576547 28
9.700274 2.049473 -1.570289 31
9.715105 2.017207 -1.571541 35
9.743764 1.955840 -1.574044 28
nan nan nan 0
9.688513 1.909593 -1.564032 31
9.746202 1.882116 -1.572167 35
9.741067 1.845877 -1.570289 31
9.766237 1.818883 -1.573418 35
9.904668 1.808914 -1.594693 45
9.891478 1.770848 -1.591565 42
10.142753 1.779314 -1.630986 17
9.874692 1.695008 -1.586871 14
9.938991 1.670350 -1.596257 24
9.958118 1.639628 -1.598448 38
9.959881 1.604230 -1.597822 35
9.961790 1.567100 -1.597196 35
9.986725 1.535319 -1.600325 28
10.023278 1.505144 -1.605331 38
10.012836 1.467853 -1.602828 38
9.931857 1.420587 -1.589062 38
9.956320 1.388638 -1.592190 35
9.931274 1.353351 -1.587497 28
10.065180 1.335829 -1.608147 14
10.140537 1.308028 -1.619410 38
10.003920 1.254921 -1.596883 45
9.937649 1.211386 -1.585620 14
10.175257 1.204321 -1.622851 35
9.879139 1.134321 -1.574982 17
9.926230 1.104633 -1.581866 10
10.688132 1.151667 -1.702633 21
10.613499 1.106159 -1.690118 14
10.522953 1.059604 -1.675100 39
10.518723 1.022104 -1.673849 21
10.575157 0.992197 -1.682297 43
10.551014 0.952791 -1.677916 29
10.276789 0.891873 -1.633802 17
9.764076 0.813048 -1.551830 13
9.725503 0.775661 -1.545260 20
9.728151 0.741709 -1.545260 23
9.734622 0.708033 -1.545886 20
9.750830 0.675004 -1.548076 27
9.770753 0.643832 -1.550892 23
9.788713 0.610707 -1.553394 27
9.810506 0.577698 -1.556523 30
9.834159 0.544648 -1.559965 27
9.851782 0.511137 -1.562468 28
9.869289 0.477508 -1.564971 28
9.880763 0.443498 -1.566535 24
10.442779 0.432204 -1.655390 43
10.477781 0.397021 -1.660708 32
10.710085 0.368389 -1.697314 36
10.675708 0.331767 -1.691682 32
10.589918 0.292103 -1.677916 25
10.750787 0.260867 -1.703259 14
10.269744 0.213326 -1.626919 31
10.558820 0.180618 -1.672598 39
10.602839 0.144351 -1.679481 29
10.109460 0.102341 -1.601263 14
10.052471 0.066669 -1.592190 14
10.036840 0.031532 -1.589687 14
10.028987 -0.003501 -1.588436 14
10.046700 -0.036824 -1.591252 14
10.040583 -0.071851 -1.590313 14
10.060043 -0.105352 -1.593442 14
10.087266 -0.140854 -1.597822 14
10.114365 -0.176548 -1.602202 14
10.170959 -0.213051 -1.611275 14
10.286622 -0.253197 -1.629734 14
10.265930 -0.288547 -1.626606 17
10.237275 -0.321720 -1.622226 24
10.240769 -0.391622 -1.623164 21
nan nan nan 0
10.245262 -0.427612 -1.624103 31
10.257521 -0.463998 -1.626293 24
10.299244 -0.501916 -1.633176 21
10.332749 -0.543326 -1.638808 14
11.032920 -0.618768 -1.750189 37
10.656257 -0.631232 -1.690744 18
10.592872 -0.664592 -1.681045 14
10.580632 -0.700911 -1.679481 14
10.558416 -0.736465 -1.676352 18
10.563526 -0.775736 -1.677603 21
10.576509 -0.813818 -1.680106 21
10.626917 -0.853155 -1.688554 29
10.639622 -0.891564 -1.691057 32
10.666125 -0.929414 -1.695750 32
10.664783 -0.966817 -1.696063 32
10.661345 -1.004039 -1.696063 36
10.677435 -1.043169 -1.699191 32
10.677658 -1.080833 -1.699817 36
10.709184 -1.121803 -1.705449 32
10.748409 -1.163855 -1.712332 32
10.738491 -1.234888 -1.712019 39
10.763540 -1.275855 -1.716712 36
10.784512 -1.316530 -1.720779 41
10.817090 -1.358845 -1.726724 37
nan nan nan 0
10.784609 -1.394935 -1.722344 37
10.806182 -1.472578 -1.727350 37
10.800975 -1.510290 -1.727350 37
10.815461 -1.548899 -1.730478 37
10.806081 -1.586070 -1.729853 37
10.866895 -1.633766 -1.740490 37
10.884555 -1.675293 -1.744244 37
10.913764 -1.718809 -1.749876 37
10.880395 -1.752498 -1.745496 37
10.855031 -1.785362 -1.742367 41
10.840940 -1.821933 -1.741116 41
10.927966 -1.875805 -1.756134 37
10.921352 -1.913941 -1.756134 37
10.937940 -1.956223 -1.759888 37
10.934930 -1.995101 -1.760514 37
10.939197 -2.037336 -1.762391 37
10.935899 -2.076246 -1.763017 37
10.946777 -2.113963 -1.765832 30
9.795781 -1.927183 -1.581240 14
9.765752 -1.956708 -1.577485 14
9.743378 -1.987627 -1.574982 14
9.759589 -2.026444 -1.578737 14
9.758255 -2.061724 -1.579675 14
9.778036 -2.101585 -1.584056 14
9.786079 -2.139079 -1.586558 14
9.815190 -2.181369 -1.592503 14
9.859541 -2.227370 -1.600950 14
9.914109 -2.272457 -1.610962 14
10.004235 -2.329900 -1.626919 14
10.109458 -2.391639 -1.645378 14
10.158669 -2.440757 -1.654764 14
10.153494 -2.478912 -1.655390 18
10.156283 -2.517188 -1.657267 14
10.147880 -2.550855 -1.657267 14
10.119773 -2.581379 -1.654138 21
10.103507 -2.612945 -1.652887 14
10.100057 -2.649700 -1.653825 14
10.117471 -2.692051 -1.658206 14
10.117549 -2.729924 -1.659770 14
10.099854 -2.764902 -1.658518 14
10.084431 -2.798556 -1.657580 14
10.073195 -2.831447 -1.657267 14
10.072747 -2.869298 -1.658831 14
10.075955 -2.908276 -1.661021 14
10.058158 -2.941213 -1.659770 14
10.059195 -2.979669 -1.661647 14
10.082790 -3.024983 -1.667279 14
10.130222 -3.079731 -1.676978 14
10.379949 -3.195273 -1.720154 15
10.425309 -3.249118 -1.729540 15
10.474187 -3.304511 -1.739552 41
10.645713 -3.397479 -1.769900 37
10.686421 -3.451622 -1.778660 37
10.688719 -3.495679 -1.781163 37
10.676452 -3.532966 -1.781163 41
10.670297 -3.570233 -1.782102 41
10.674609 -3.613156 -1.784917 41
10.660064 -3.649756 -1.784605 41
10.656591 -3.690176 -1.786169 41
10.655482 -3.729409 -1.788046 41
10.631227 -3.762627 -1.786169 41
10.647786 -3.810364 -1.791175 41
10.619561 -3.842131 -1.788672 41
10.620247 -3.886458 -1.791175 41
10.614026 -3.926249 -1.792426 41
10.618760 -3.970192 -1.795555 42
10.601141 -4.005837 -1.794929 37
10.584108 -4.039561 -1.794304 37
10.569942 -4.076481 -1.794304 37
10.545321 -4.107210 -1.792426 37
10.538274 -4.146889 -1.793678 37
10.539523 -4.192055 -1.796494 42
10.557818 -4.242077 -1.802125 42
10.541863 -4.276321 -1.801812 42
10.548807 -4.322081 -1.805567 42
10.515403 -4.351324 -1.802438 38
10.507441 -4.391049 -1.803690 38
10.510248 -4.435380 -1.806818 38
10.501971 -4.475139 -1.808070 46
10.475399 -4.507085 -1.806193 42
10.461413 -4.544412 -1.806505 38
10.396643 -4.559480 -1.798058 38
10.414983 -4.610937 -1.804003 46
10.419476 -4.654311 -1.807444 42
10.395962 -4.687407 -1.806193 42
10.362381 -4.713675 -1.803064 42
10.353045 -4.753114 -1.804315 42
10.369491 -4.802362 -1.809947 42
10.375928 -4.849403 -1.814014 42
10.313422 -4.866327 -1.806193 42
10.321342 -4.914186 -1.810573 42
10.335309 -4.967386 -1.816204 42
10.307240 -4.998261 -1.814327 46
10.302136 -5.035823 -1.816204 42
10.270323 -5.064762 -1.813701 42
10.245505 -5.097062 -1.812450 42
10.245307 -5.141655 -1.815579 42
10.220246 -5.173818 -1.814327 46
10.184532 -5.200480 -1.811198 46
10.179450 -5.245011 -1.813701 42
10.126023 -5.262293 -1.807444 46
10.112017 -5.297678 -1.808070 42
10.117915 -5.345860 -1.812450 42
10.099998 -5.383838 -1.812763 38
10.065483 -5.410644 -1.809947 46
10.017169 -5.425305 -1.804315 42
10.012039 -5.467813 -1.806818 42
9.996354 -5.504632 -1.807444 42
9.970170 -5.535659 -1.806193 46
9.967049 -5.581817 -1.809321 42
9.954385 -5.620457 -1.810573 46
9.955305 -5.666897 -1.814327 42
9.921757 -5.693750 -1.811824 42
9.895981 -5.722663 -1.810573 42
9.882771 -5.761151 -1.811824 42
9.866007 -5.797615 -1.812450 42
9.850808 -5.835040 -1.813389 42
9.803243 -5.853187 -1.808383 42
9.801370 -5.898576 -1.811824 42
9.797610 -5.942996 -1.814953 38
9.766692 -5.970980 -1.813076 46
9.736749 -5.997118 -1.811198 42
9.761069 -6.059197 -1.819646 38
9.754930 -6.102662 -1.822462 34
9.730227 -6.134570 -1.821836 38
9.692080 -6.157904 -1.818707 38
9.668864 -6.190631 -1.818394 42
9.685372 -6.248976 -1.825590 34
9.640312 -6.267674 -1.821210 34
9.634899 -6.312112 -1.824339 38
9.625998 -6.354410 -1.826842 34
9.610336 -6.392349 -1.828093 34
9.597810 -6.432455 -1.829971 38
9.591669 -6.476971 -1.833099 38
9.565735 -6.508193 -1.832474 38
9.540844 -6.537643 -1.831848 38
9.540720 -6.586622 -1.836228 38
9.535046 -6.629498 -1.839357 38
9.494048 -6.650278 -1.835915 42
9.461542 -6.679332 -1.834351 38
9.428511 -6.705449 -1.832474 42
9.430738 -6.756728 -1.837479 42
9.448742 -6.819664 -1.845614 38
9.428077 -6.854926 -1.846240 38
9.388153 -6.876122 -1.843111 42
9.360915 -6.906507 -1.842485 42
9.336750 -6.939141 -1.842485 38
9.314052 -6.972873 -1.842798 42
9.303850 -7.016047 -1.845614 42
9.291203 -7.052408 -1.847491 38
9.255543 -7.076398 -1.845301 42
9.244872 -7.119509 -1.848117 38
9.207476 -7.142054 -1.845614 38
9.204884 -7.196822 -1.850620 38
9.167290 -7.219132 -1.848117 38
9.132182 -7.238079 -1.845614 38
9.119209 -7.279774 -1.848117 38
9.080153 -7.303242 -1.845614 38
9.069955 -7.347327 -1.848743 38
9.033048 -7.364552 -1.845927 31
8.998125 -7.388517 -1.844050 34
9.001204 -7.443798 -1.849994 38
8.969094 -7.470116 -1.848743 34
8.944475 -7.502651 -1.849056 31
8.906162 -7.523627 -1.846553 31
8.864799 -7.541870 -1.843424 31
8.809917 -7.548348 -1.837479 27
8.808942 -7.600991 -1.842798 23
8.789810 -7.638175 -1.844363 34
8.752837 -7.662533 -1.842485 27
8.729001 -7.695650 -1.843111 34
8.694436 -7.713861 -1.840921 27
8.688081 -7.762587 -1.845301 31
8.650762 -7.786448 -1.843424 31
8.613284 -7.807312 -1.841234 31
8.596101 -7.843821 -1.843111 27
8.580307 -7.884470 -1.845614 31
8.587529 -7.946572 -1.853123 27
7.610261 -7.091719 -1.647568 10
7.598424 -7.130406 -1.650384 21
8.465076 -7.999434 -1.844675 19
8.458569 -8.049358 -1.849368 31
7.966896 -7.634643 -1.747686 33
7.887416 -7.606157 -1.735484 45
7.852314 -7.625386 -1.733607 41
7.889271 -7.717656 -1.747999 48
7.834136 -7.717424 -1.741742 41
8.215249 -8.149556 -1.832786 23
8.218894 -8.210292 -1.839982 27
7.736146 -7.779474 -1.737674 18
7.671467 -7.768482 -1.729227 33
7.524016 -7.675235 -1.702320 32
7.329076 -7.528766 -1.664150 14
7.553984 -7.808730 -1.720779 33
7.024445 -7.312240 -1.605956 38
6.977059 -7.313847 -1.600950 42
6.905299 -7.289397 -1.590313 38
6.878459 -7.312018 -1.590000 28
7.060556 -7.558287 -1.638182 31
7.052940 -7.603160 -1.642562 39
6.962114 -7.557996 -1.627544 17
6.699699 -7.324264 -1.572167 31
6.666125 -7.338830 -1.570289 35
6.841573 -7.585015 -1.617846 42
6.871726 -7.672122 -1.631299 31
6.842307 -7.690440 -1.630360 31
6.838963 -7.740922 -1.635992 24
6.858735 -7.820889 -1.647568 39
6.867718 -7.886493 -1.656328 10
6.893218 -7.968986 -1.668843 25
nan nan nan 0
6.724615 -7.884653 -1.641311 21
6.684283 -7.893004 -1.638182 10
6.614738 -7.866395 -1.627857 21
6.672065 -7.991031 -1.648820 14
6.429803 -7.755747 -1.595632 14
6.424035 -7.804069 -1.600950 21
7.700605 -9.421717 -1.927273 12
7.717460 -9.509893 -1.939788 20
7.732990 -9.593875 -1.951677 16
7.684643 -9.602302 -1.947922 20
6.767247 -8.519798 -1.723282 11
nan nan nan 0
nan nan nan 0
6.700692 -8.619828 -1.729227 18
6.666034 -8.634183 -1.727662 26
7.565982 -9.870876 -1.969823 16
7.546494 -9.920553 -1.974203 20
7.495154 -9.924765 -1.969823 24
7.417807 -9.893970 -1.958560 24
7.424504 -9.975264 -1.969510 24
7.412519 -10.028422 -1.975142 28
7.379808 -10.057421 -1.975768 20
7.369079 -10.116651 -1.982338 20
7.332561 -10.140713 -1.982025 16
7.291358 -10.158223 -1.980461 24
7.269613 -10.202917 -1.984215 24
7.275016 -10.286290 -1.995478 20
7.223178 -10.288985 -1.991098 20
7.163500 -10.280105 -1.984528 20
7.125324 -10.301797 -1.983902 20
7.126215 -10.380348 -1.994227 20
7.123307 -10.454134 -2.003613 20
7.084945 -10.480171 -2.003613 20
7.057120 -10.517962 -2.006116 24
7.012349 -10.526510 -2.003300 24
6.990813 -10.573993 -2.007680 20
6.988538 -10.651182 -2.017692 16
6.947003 -10.668891 -2.016440 24
6.910792 -10.694734 -2.016753 20
6.878749 -10.727107 -2.018318 16
6.852111 -10.772246 -2.022072 16
6.820791 -10.806124 -2.023949 20
6.800653 -10.853790 -2.028642 20
6.757510 -10.869075 -2.027078 16
6.726789 -10.904366 -2.029268 24
6.686621 -10.924411 -2.028642 16
6.672030 -10.986519 -2.035838 16
6.646895 -11.031736 -2.039906 20
6.605206 -11.045240 -2.038341 16
6.561568 -11.059737 -2.036777 24
6.516910 -11.072360 -2.034900 24
6.497145 -11.127453 -2.040844 16
6.470176 -11.175123 -2.045224 20
6.435061 -11.204493 -2.046476 16
6.404724 -11.233233 -2.048040 16
6.362558 -11.250361 -2.047102 16
6.332910 -11.289734 -2.050231 16
6.280977 -11.289330 -2.046163 20
6.246239 -11.324383 -2.048353 16
6.204772 -11.342651 -2.047727 20
6.167966 -11.369451 -2.048666 20
6.153513 -11.437880 -2.057113 20
6.122849 -11.476718 -2.060242 16
6.075359 -11.484052 -2.057739 16
6.050270 -11.524070 -2.061494 16
5.999060 -11.524093 -2.057739 20
5.965141 -11.557249 -2.059929 20
5.911265 -11.551625 -2.055236 28
5.875371 -11.580997 -2.056801 20
5.840239 -11.612023 -2.058678 16
5.807331 -11.652798 -2.062119 20
5.775369 -11.690709 -2.065248 20
5.758298 -11.754146 -2.073070 20
5.711190 -11.761737 -2.070880 20
5.684155 -11.805527 -2.075260 20
5.642060 -11.823514 -2.074947 24
5.591464 -11.823493 -2.071505 24
5.560217 -11.864403 -2.075260 24
5.517115 -11.891041 -2.076198 24
nan nan nan 0
5.485477 -11.931764 -2.079953 20
5.443794 -11.950839 -2.079953 20
5.367160 -11.998436 -2.081830 20
5.336446 -12.042383 -2.086210 17
5.302320 -12.079024 -2.089339 17
5.269577 -12.119198 -2.093093 21
5.239742 -12.166547 -2.098099 21
5.206541 -12.206566 -2.101854 25
5.150656 -12.187373 -2.095596 25
5.121047 -12.236256 -2.100915 17
5.076788 -12.250409 -2.100289 21
5.050492 -12.308260 -2.107172 17
5.008987 -12.329474 -2.107798 21
4.971815 -12.361546 -2.110301 21
4.938105 -12.396316 -2.113430 21
4.896253 -12.417153 -2.114056 21
4.875835 -12.499427 -2.125006 25
4.827905 -12.505314 -2.123129 25
4.775124 -12.491733 -2.118123 21
4.735686 -12.519409 -2.120000 25
4.703727 -12.567314 -2.125319 25
4.666004 -12.600330 -2.128135 25
4.629466 -12.636943 -2.131576 29
4.596768 -12.684599 -2.136895 25
4.555128 -12.708004 -2.138146 25
4.515365 -12.736860 -2.140337 21
4.481987 -12.784234 -2.145655 21
4.441213 -12.811001 -2.147533 25
4.402550 -12.836869 -2.149410 25
4.350102 -12.829710 -2.145655 25
4.309689 -12.857925 -2.147846 29
4.260431 -12.859766 -2.145655 34
4.235186 -12.934632 -2.155667 29
4.188793 -12.945579 -2.155041 25
4.149594 -12.978937 -2.158170 25
4.119733 -13.042317 -2.166305 21
4.090593 -13.101161 -2.173814 25
4.059391 -13.162551 -2.181635 25
4.009391 -13.171674 -2.180697 21
3.983294 -13.251799 -2.191647 21
3.950008 -13.300916 -2.197592 21
3.911339 -13.341160 -2.201972 21
3.873120 -13.374928 -2.205413 17
3.817724 -13.357978 -2.200408 17
3.768738 -13.371881 -2.200408 21
3.744795 -13.466790 -2.213861 26
3.711367 -13.510870 -2.219180 26
3.668835 -13.540902 -2.221995 26
3.636503 -13.619148 -2.232633 21
3.575362 -13.580181 -2.224185 26
3.528932 -13.596403 -2.224811 26
3.472144 -13.572278 -2.218867 35
3.436302 -13.620109 -2.224811 35
3.395406 -13.658860 -2.229192 26
3.353775 -13.705750 -2.234823 21
3.318409 -13.769224 -2.243271 26
3.275468 -13.791684 -2.245148 26
3.239002 -13.853044 -2.253282 26
3.196829 -13.891216 -2.257663 26
3.153991 -13.927338 -2.261730 21
3.106072 -13.930006 -2.260478 26
3.064195 -13.971637 -2.265484 17
3.010053 -13.969257 -2.263294 26
2.960457 -13.975813 -2.262668 26
2.917718 -14.002958 -2.265484 26
2.866843 -14.003382 -2.263920 26
2.833394 -14.102883 -2.278312 26
2.780707 -14.095245 -2.275496 26
2.729439 -14.081118 -2.271742 35
2.695038 -14.168181 -2.284256 17
2.651602 -14.182404 -2.285195 21
2.611343 -14.242092 -2.293329 22
2.565009 -14.298677 -2.300838 18
2.518497 -14.326999 -2.303967 18
2.477860 -14.390210 -2.312727 22
2.431230 -14.420199 -2.316169 31
2.402674 -14.529110 -2.332438 18
2.356041 -14.562759 -2.336505 22
2.303574 -14.577148 -2.337444 31
2.251775 -14.579245 -2.336505 27
2.208431 -14.619836 -2.341824 31
2.159114 -14.639181 -2.343701 27
